0.054139 0.074949 0.253004
0.063714 0.076851 0.254097
0.075300 0.061381 0.259323
0.089589 0.047352 0.257995
0.077157 0.041242 0.259627
0.074531 0.024226 0.263748
0.062783 0.024347 0.267362
0.055811 0.048770 0.263573
0.041338 0.071130 0.270468
0.034750 0.078254 0.268544
-0.010828 0.211593 0.237037
-0.025652 0.208561 0.240962
-0.050503 0.206414 0.237903
-0.038951 0.216236 0.245447
-0.061117 0.197166 0.232549
-0.098519 0.215471 0.217974
-0.057247 0.190457 0.233777
-0.050072 0.169079 0.236184
-0.067413 0.158792 0.233393
-0.108366 0.201020 0.217418
-0.116262 0.210977 0.212157
-0.103577 0.193158 0.220943
-0.093349 0.186151 0.225323
-0.115405 0.219121 0.209812
-0.131726 0.206022 0.206502
-0.151992 0.200421 0.193949
-0.135394 0.189583 0.210754
-0.151675 0.189416 0.199432
-0.131279 0.189969 0.213431
-0.140562 0.175507 0.213587
-0.163053 0.188585 0.191665
-0.177673 0.176048 0.182326
-0.073251 0.155231 0.232329
-0.113531 0.169495 0.222162
-0.108558 0.162868 0.223827
-0.056871 0.134716 0.235521
-0.068020 0.146947 0.233098
-0.153156 0.167606 0.207805
-0.154884 0.156236 0.212078
-0.121925 0.159319 0.220995
-0.179873 0.156649 0.189500
-0.180106 0.151935 0.191428
-0.191368 0.140100 0.185544
-0.178636 0.123354 0.199860
-0.177787 0.120159 0.200324
-0.162013 0.111564 0.213914
-0.116882 0.149134 0.224396
-0.109342 0.129136 0.228462
-0.149198 0.148068 0.218014
-0.089661 0.142509 0.229857
-0.148559 0.116624 0.220651
-0.138851 0.119587 0.222891
-0.139843 0.095108 0.230870
-0.136047 0.089242 0.234524
-0.116021 0.091636 0.242946
-0.129298 0.077893 0.241588
-0.136308 0.059003 0.241917
-0.131785 0.048856 0.244545
-0.113410 0.085219 0.246726
-0.084364 0.111841 0.234714
-0.110560 0.052475 0.251332
-0.111806 0.051963 0.250972
-0.093945 0.096774 0.242337
-0.105807 0.044312 0.255305
-0.071605 0.102457 0.239049
-0.078157 0.083691 0.249208
-0.054320 0.071820 0.255182
-0.071885 0.070617 0.255837
-0.072148 0.048866 0.259490
-0.093130 0.042654 0.258080
-0.049158 0.057187 0.261238
-0.086641 0.028924 0.260860
-0.071655 0.026103 0.263907
-0.054365 0.032246 0.270041
0.008188 -0.064202 -0.140986
0.012827 -0.059571 -0.162756
0.001851 -0.033564 -0.185688
0.021246 -0.064554 -0.157803
0.008645 -0.035522 -0.186202
0.005850 -0.005816 -0.204079
0.026429 -0.057087 -0.178006
0.021345 -0.052915 -0.176954
0.009916 -0.000862 -0.207051
0.002432 0.029576 -0.216644
0.044008 -0.038976 -0.196160
0.048886 -0.025950 -0.204114
0.019117 -0.013497 -0.203678
0.020112 0.004959 -0.211423
0.044636 -0.079019 -0.185389
0.034877 -0.084803 -0.170899
0.007297 0.032553 -0.218535
0.051643 -0.058647 -0.194838
0.042332 -0.068631 -0.186907
0.044298 -0.053274 -0.191053
0.016936 0.028006 -0.217497
0.017680 0.022865 -0.216384
0.053721 0.010795 -0.219970
0.038894 0.012575 -0.217886
0.033897 0.024922 -0.217576
0.046997 0.022497 -0.220835
0.026330 0.069954 -0.230523
0.047624 0.059221 -0.219462
0.033249 0.091155 -0.222047
0.057660 0.037959 -0.219728
0.051034 0.065579 -0.216763
0.082431 0.032662 -0.209180
0.065573 0.042136 -0.215209
0.087319 0.012812 -0.205283
0.088103 -0.000099 -0.201407
0.074629 -0.007122 -0.206118
0.088433 -0.012480 -0.197539
0.085285 0.047942 -0.201654
0.094852 0.045770 -0.189742
0.095668 0.007749 -0.195939
0.100132 0.006031 -0.188613
0.075402 0.073216 -0.197489
0.080965 0.077931 -0.188144
0.093028 0.048509 -0.190756
0.092353 0.054226 -0.188210
0.091417 -0.015470 -0.195181
0.089051 -0.027850 -0.193056
0.068250 -0.047571 -0.198388
0.103969 -0.003632 -0.179226
0.107481 0.007690 -0.175166
0.095419 -0.035463 -0.184816
0.103344 -0.022549 -0.173742
0.110152 0.037304 -0.166577
0.092687 0.074242 -0.171583
0.111524 0.019454 -0.158229
0.111631 0.033498 -0.153895
0.069815 0.092455 -0.189820
0.068565 0.088803 -0.192969
0.049095 0.086507 -0.212937
0.105340 0.055961 -0.152291
0.099857 0.066722 -0.157710
0.110866 0.043173 -0.148733
0.087731 0.089463 -0.169522
0.081747 0.094887 -0.172076
0.112764 0.010375 -0.150839
0.029178 0.121392 -0.205780
0.108126 0.051298 -0.146915
0.015842 0.092169 -0.231088
0.012048 0.121204 -0.215503
0.002990 0.103514 -0.227923
0.022193 0.135393 -0.195669
0.031833 0.133417 -0.186922
-0.019946 0.092352 -0.229669
0.047102 0.125684 -0.181725
0.082691 0.107592 -0.154686
0.068547 0.111676 -0.171233
-0.024052 0.072465 -0.232325
-0.011029 0.045562 -0.225307
-0.020064 0.119187 -0.212210
-0.002512 0.108568 -0.225177
-0.012697 0.042442 -0.220647
-0.009678 0.026458 -0.217078
-0.015003 -0.003251 -0.207054
-0.005141 -0.024171 -0.194834
0.013394 0.154111 -0.181595
-0.017165 -0.041486 -0.183749
-0.006381 -0.040921 -0.180743
-0.009998 -0.064338 -0.145078
-0.010399 -0.061736 -0.158932
-0.021578 -0.063775 -0.165785
-0.023040 -0.042774 -0.186988
-0.028374 -0.058162 -0.178801
-0.021442 -0.058953 -0.173681
-0.030938 -0.039268 -0.193463
-0.020933 -0.024631 -0.199387
-0.027342 0.002543 -0.212028
-0.022429 0.006243 -0.212456
-0.039472 -0.072364 -0.181884
-0.035367 -0.081242 -0.173025
-0.053778 -0.037812 -0.201881
-0.057355 -0.034222 -0.205281
-0.050560 -0.055059 -0.194692
-0.048496 -0.112131 -0.177878
-0.034511 -0.093531 -0.167298
-0.065583 -0.084326 -0.188201
-0.067682 -0.090302 -0.185445
-0.056603 -0.095954 -0.186714
-0.062526 -0.102117 -0.183049
-0.051803 -0.130542 -0.176877
-0.042960 -0.136456 -0.165937
-0.065731 -0.118072 -0.178573
-0.046772 -0.167168 -0.169007
-0.064863 -0.153541 -0.177195
-0.043390 -0.183098 -0.163278
-0.051001 -0.190966 -0.174555
-0.057928 -0.162810 -0.177569
-0.042940 -0.206995 -0.158252
-0.076401 -0.166316 -0.166682
-0.072213 -0.174401 -0.175395
-0.076088 -0.172921 -0.166788
-0.073189 -0.140608 -0.172991
-0.041981 -0.231739 -0.159735
-0.039590 -0.244661 -0.157594
-0.048697 -0.253035 -0.175251
-0.064262 -0.229538 -0.181832
-0.050895 -0.257136 -0.175236
-0.083626 -0.221373 -0.158372
-0.078520 -0.208147 -0.167893
-0.072790 -0.202531 -0.182234
-0.078923 -0.192963 -0.160006
-0.083543 -0.222368 -0.148223
-0.092055 -0.248802 -0.130058
-0.088233 -0.240826 -0.150238
-0.079069 -0.229695 -0.124548
-0.058403 -0.253402 -0.112407
-0.081057 -0.208124 -0.144385
-0.074867 -0.232741 -0.119222
-0.079329 -0.207173 -0.136347
-0.053546 -0.242911 -0.117461
-0.056883 -0.227109 -0.123452
-0.043624 -0.249327 -0.124926
-0.039943 -0.249210 -0.138938
-0.039681 -0.239808 -0.138248
-0.039910 -0.227748 -0.148039
-0.074582 -0.204464 -0.134236
-0.062338 -0.200476 -0.128748
-0.078978 -0.189843 -0.141658
-0.054891 -0.191756 -0.132795
-0.042795 -0.194481 -0.150015
-0.069002 -0.181515 -0.131966
-0.058973 -0.183747 -0.129739
-0.044222 -0.182493 -0.138834
-0.041922 -0.173454 -0.157666
-0.069413 -0.170949 -0.131109
-0.043043 -0.150641 -0.160993
-0.059670 -0.165744 -0.128118
-0.081208 -0.166072 -0.136312
-0.041641 -0.142461 -0.149498
-0.067693 -0.154491 -0.128115
-0.063191 -0.137959 -0.123519
-0.083996 -0.145278 -0.141999
-0.039919 -0.115938 -0.137373
-0.040047 -0.116989 -0.141632
-0.037466 -0.104531 -0.155452
-0.038605 -0.104529 -0.144181
-0.029903 -0.081368 -0.152323
-0.059004 -0.130430 -0.124464
-0.044312 -0.125476 -0.130545
-0.068978 -0.121941 -0.118697
-0.033667 -0.077245 -0.122297
-0.028400 -0.072645 -0.134486
-0.017600 -0.066896 -0.135364
-0.027166 -0.066647 -0.125790
-0.007698 -0.066397 -0.096921
-0.003743 -0.066019 -0.099584
-0.036013 -0.075426 -0.116027
-0.064762 -0.088180 -0.104499
-0.021257 -0.064709 -0.092821
-0.048467 -0.071301 -0.099815
-0.003478 -0.067477 -0.085134
-0.008380 -0.074092 -0.063957
-0.010526 -0.078236 -0.049111
-0.002413 -0.081907 -0.040365
-0.020704 -0.081160 -0.000290
-0.013414 -0.082500 0.001351
-0.029612 -0.077921 -0.033667
-0.029928 -0.078262 -0.004399
-0.032970 -0.077515 -0.022032
-0.040935 -0.071031 -0.047937
-0.002968 -0.084245 0.019094
-0.023639 -0.072783 0.037997
-0.019000 -0.065175 0.065716
-0.062922 -0.060033 -0.087524
-0.025947 -0.072560 0.036457
-0.037797 -0.075718 -0.008108
-0.030496 -0.052831 0.095683
-0.020739 -0.057116 0.091263
-0.037291 -0.068795 0.039366
-0.039870 -0.057894 0.074142
-0.015254 -0.052260 0.115296
-0.019490 -0.049216 0.123189
-0.022531 -0.050109 0.116491
-0.032970 -0.049264 0.108497
-0.055086 -0.059460 0.030988
-0.051454 -0.065014 0.023823
-0.059212 -0.060005 0.015931
-0.053462 -0.044580 0.072341
-0.059929 -0.055960 0.026765
-0.055528 -0.047314 0.057858
-0.048540 -0.069193 -0.026630
-0.051131 -0.067077 -0.013194
-0.045336 -0.071162 -0.039532
-0.063142 -0.035645 0.065816
-0.086119 -0.017587 0.056636
-0.063463 -0.050874 0.029256
-0.052349 -0.062850 -0.053797
-0.051603 -0.061419 -0.068357
-0.094667 -0.025389 0.009569
-0.080212 -0.039270 0.000058
-0.077778 -0.041353 -0.011228
-0.087833 -0.020765 0.043088
-0.092760 -0.021238 0.027072
-0.082813 -0.036103 0.015080
-0.095574 -0.023948 0.003315
-0.080427 -0.036416 -0.030971
-0.089497 -0.027766 -0.020596
-0.065717 -0.050121 -0.039659
-0.076580 -0.038311 -0.041627
-0.097576 -0.014390 0.018849
-0.099401 -0.013582 0.011871
-0.097954 -0.019435 0.006197
-0.098782 -0.009950 -0.019754
-0.103225 0.000323 -0.012247
-0.067652 -0.029853 0.070498
-0.052900 -0.041444 0.093265
-0.067998 -0.041033 -0.061681
-0.055194 -0.035322 0.096126
-0.108162 0.008439 -0.049703
-0.107507 0.008606 -0.014759
-0.098348 -0.010758 -0.035396
-0.104936 0.001271 -0.033867
-0.062084 -0.047172 -0.063649
-0.106107 0.011593 -0.062628
-0.094439 -0.002612 -0.072917
-0.084151 -0.026714 -0.084528
-0.064735 -0.051097 -0.082394
-0.066004 -0.052975 -0.084820
-0.068071 -0.064318 -0.094353
-0.099159 0.006639 -0.094287
-0.094311 -0.028064 -0.104455
-0.090705 -0.038362 -0.102502
-0.096306 -0.010161 -0.100110
-0.085335 -0.052279 -0.100597
-0.088668 -0.060197 -0.111391
-0.102704 -0.043624 -0.120927
-0.104194 -0.040637 -0.122193
-0.103805 0.019543 -0.096888
-0.101213 0.015021 -0.088229
-0.105734 0.020261 -0.075105
-0.111775 0.018474 -0.054751
-0.106665 0.020665 -0.072524
-0.116205 0.051096 -0.053411
-0.113368 0.031160 -0.060082
-0.116549 0.062811 -0.058281
-0.115966 0.035506 -0.041749
-0.112463 0.023367 -0.006142
-0.116774 0.042963 -0.042453
-0.108817 0.047162 -0.100931
-0.108844 0.050292 -0.103948
-0.107506 0.040055 -0.127833
-0.112729 0.076440 -0.069615
-0.112176 0.079560 -0.069960
-0.111471 0.066633 -0.086434
-0.115860 0.069576 -0.057416
-0.109717 0.028504 -0.128082
-0.114920 0.005505 -0.131368
-0.099053 0.098860 -0.121294
-0.103288 0.078736 -0.118282
-0.103863 0.094146 -0.101872
-0.098506 0.110490 -0.114278
-0.100649 0.071914 -0.137150
-0.093523 0.097544 -0.142642
-0.092496 0.097191 -0.146543
-0.109412 0.044857 -0.139072
-0.099357 0.076807 -0.148637
-0.108854 -0.027279 -0.144553
-0.113598 -0.003232 -0.137772
-0.110734 -0.018520 -0.139819
-0.112424 0.030099 -0.147285
-0.113801 0.021110 -0.141109
-0.087981 -0.069026 -0.117034
-0.074078 -0.087587 -0.110033
-0.088773 -0.099457 -0.127229
-0.084822 -0.128482 -0.133063
-0.104726 -0.046633 -0.158146
-0.109691 -0.016645 -0.161162
-0.102236 -0.058798 -0.150335
-0.101128 -0.066332 -0.130511
-0.088001 -0.117734 -0.139708
-0.077565 -0.111797 -0.174542
-0.090023 -0.106316 -0.149022
-0.086567 -0.099901 -0.164200
-0.093741 -0.088907 -0.153001
-0.100247 -0.065838 -0.151264
-0.087646 -0.090660 -0.166594
-0.092845 -0.074444 -0.165676
-0.094913 -0.062704 -0.169091
-0.092415 -0.055668 -0.180422
-0.095550 -0.042423 -0.181684
-0.097369 -0.043287 -0.177013
-0.076908 -0.081149 -0.185423
-0.075170 -0.078573 -0.186967
-0.060568 -0.039659 -0.204152
-0.094547 -0.026843 -0.190063
-0.099343 -0.016114 -0.184531
-0.088662 -0.019040 -0.195563
-0.077962 -0.016884 -0.201271
-0.098381 -0.011815 -0.188190
-0.108779 0.012216 -0.173750
-0.111187 0.015670 -0.166525
-0.075800 -0.008710 -0.204995
-0.052323 0.012513 -0.220326
-0.088850 0.008330 -0.203237
-0.090481 -0.008217 -0.197922
-0.095303 0.023853 -0.198552
-0.093799 0.016633 -0.200034
-0.051393 0.033323 -0.222019
-0.043259 0.020263 -0.219884
-0.055949 0.029027 -0.222166
-0.032827 0.046424 -0.221126
-0.033610 0.040854 -0.219920
-0.021218 0.048161 -0.221140
-0.086140 0.045258 -0.201914
-0.107174 0.032324 -0.180072
-0.063787 0.046730 -0.215005
-0.052658 0.060520 -0.217176
-0.043378 0.086239 -0.216785
-0.099712 0.046835 -0.182163
-0.093026 0.063828 -0.181331
-0.072998 0.080185 -0.194023
-0.070447 0.077947 -0.198373
-0.096220 0.065036 -0.174830
-0.108345 0.043058 -0.162280
-0.096182 0.073558 -0.161691
-0.100485 0.064715 -0.157820
-0.043004 0.090595 -0.216166
-0.040987 0.100106 -0.212850
-0.057381 0.083576 -0.206701
-0.062486 0.087381 -0.199684
-0.070682 0.103398 -0.178635
-0.071920 0.099045 -0.182045
-0.036882 0.120343 -0.200550
-0.033713 0.116200 -0.206375
-0.055295 0.126077 -0.172699
-0.059783 0.116557 -0.178354
-0.057980 0.115965 -0.181938
-0.039893 0.125716 -0.188677
-0.028687 0.127422 -0.200131
-0.041759 0.135602 -0.174219
-0.025943 0.144771 -0.177356
-0.071718 0.122776 -0.150416
-0.086156 0.111194 -0.143410
-0.011091 0.155308 -0.184202
-0.008211 0.138474 -0.205556
-0.023215 0.163731 -0.155658
-0.021659 0.152092 -0.172062
-0.014656 0.159220 -0.173366
-0.063236 0.136074 -0.147373
-0.058691 0.129475 -0.162611
-0.064351 0.143676 -0.136317
-0.023901 0.178010 -0.136325
-0.043657 0.145025 -0.160399
-0.030657 0.170607 -0.139269
-0.063262 0.156965 -0.115033
-0.080319 0.139635 -0.106489
-0.083878 0.139454 -0.092945
-0.092945 0.127638 -0.092122
-0.080940 0.143397 -0.092868
-0.019585 0.182967 -0.131470
-0.032903 0.176062 -0.120690
-0.017621 0.190434 -0.104931
-0.034196 0.174623 -0.122993
-0.062144 0.158346 -0.112905
-0.064792 0.159850 -0.101651
-0.052336 0.162483 -0.120719
-0.008053 0.183830 -0.152193
-0.010189 0.193455 -0.129521
-0.011467 0.197618 -0.104886
0.005041 0.179063 -0.162166
0.011983 0.180576 -0.149603
0.010585 0.167076 -0.171261
0.048703 0.137511 -0.165294
0.027992 0.153615 -0.164134
0.041256 0.145652 -0.161861
0.003791 0.197830 -0.131956
0.024540 0.175828 -0.138618
0.047728 0.145230 -0.155813
0.052630 0.145842 -0.149792
0.011799 0.190072 -0.135458
0.024701 0.179268 -0.131875
0.025670 0.183144 -0.112004
0.034242 0.175662 -0.118320
0.010911 0.198540 -0.103857
0.083573 0.118354 -0.136974
0.088149 0.121262 -0.126200
0.054849 0.130555 -0.167360
0.062718 0.149871 -0.131327
0.092145 0.106320 -0.140613
0.092773 0.112878 -0.129593
0.033862 0.181893 -0.094883
0.047001 0.170342 -0.105400
0.045023 0.173209 -0.099879
0.069690 0.154867 -0.101384
0.079112 0.140053 -0.109016
0.071169 0.154683 -0.097533
0.016381 0.198341 -0.071187
0.011321 0.202878 -0.081913
0.062818 0.164066 -0.089608
0.029974 0.187822 -0.061028
0.031609 0.186824 -0.059768
0.063801 0.163519 -0.088086
0.093279 0.106760 -0.137622
0.098356 0.092374 -0.128669
0.100429 0.074520 -0.132696
0.103016 0.064807 -0.134107
0.092139 0.129125 -0.090903
0.091736 0.124099 -0.107602
0.107375 0.044272 -0.125207
0.104799 0.083664 -0.105397
0.111476 0.061826 -0.090996
0.102234 0.085548 -0.117312
0.107386 0.044372 -0.111316
0.104905 0.019437 -0.108092
0.097034 0.110932 -0.120666
0.105094 0.085432 -0.102697
0.111816 0.022387 -0.130790
0.082012 0.147611 -0.066866
0.077309 0.157230 -0.050362
0.075611 0.152776 -0.082718
0.079538 0.149589 -0.073086
0.059941 0.169048 -0.049269
0.060805 0.167316 -0.064255
0.059913 0.168316 -0.058881
0.048720 0.176803 -0.043643
0.110013 -0.011507 -0.123863
0.108534 -0.022671 -0.123852
0.111741 -0.011682 -0.143034
0.110064 -0.025929 -0.130143
0.107744 -0.039554 -0.128509
0.085150 0.145814 -0.050435
0.103075 0.115731 -0.084872
0.099723 0.123520 -0.050136
0.110555 -0.011410 -0.161783
0.106156 -0.042190 -0.146938
0.104141 -0.039583 -0.163224
0.101140 -0.033040 -0.173588
0.106587 0.107836 -0.069130
0.112764 0.089461 -0.045965
0.105426 0.108736 -0.082320
0.114267 0.063399 -0.072888
0.114740 0.074023 -0.059965
0.110058 0.083983 -0.078480
0.074602 0.155950 -0.024939
0.084945 0.145014 -0.040318
0.094450 0.131591 -0.043004
0.073899 0.149646 0.000007
0.065512 0.165435 -0.042374
0.053525 0.173555 -0.041801
0.055140 0.169605 -0.024868
0.050993 0.170101 -0.010892
0.110861 0.097856 -0.042837
0.116173 0.069822 -0.027018
0.111776 0.083146 -0.016368
0.082693 0.138611 -0.004952
0.076092 0.146262 0.001342
0.095645 0.120898 -0.000283
0.096048 0.124110 -0.023845
0.107915 0.095489 -0.012142
0.109176 0.097134 -0.025566
0.106266 0.093492 0.005087
0.037733 0.181755 -0.011424
0.037746 0.181785 -0.005194
0.031063 0.187551 -0.022307
0.066959 0.151934 0.028219
0.068270 0.153743 0.014886
0.077229 0.142625 0.012526
0.054117 0.159998 0.049241
0.055032 0.163022 0.029214
0.051240 0.167887 0.021567
0.107483 0.066864 0.031356
0.102496 0.103600 0.010969
0.105876 0.089542 0.012136
0.100797 0.108564 0.012839
0.024318 0.194077 -0.005838
0.014302 0.203357 -0.031555
0.012683 0.203946 -0.063483
0.012654 0.204672 -0.041561
0.088080 0.118490 0.037503
0.072624 0.135655 0.053136
0.068177 0.141981 0.054985
0.099929 0.075255 0.054432
0.097406 0.085070 0.050741
0.098484 0.079819 0.053543
0.000044 0.203204 -0.119943
-0.003595 0.212157 -0.053728
0.002006 0.212068 -0.029125
0.021166 0.195753 0.002039
-0.005269 0.207946 -0.013434
0.004352 0.204040 0.006732
-0.002102 0.207611 -0.007188
0.028864 0.188877 0.015758
0.003451 0.201953 0.023957
0.026596 0.186372 0.047671
0.020386 0.191663 0.048684
0.042750 0.173366 0.033077
0.032135 0.180700 0.052700
0.011270 0.198198 0.054257
0.046619 0.165692 0.060849
0.057827 0.158279 0.095582
0.054304 0.161262 0.090961
0.064984 0.144731 0.069707
0.060660 0.151534 0.063657
0.060186 0.154144 0.088053
0.022905 0.189394 0.063226
0.008341 0.200395 0.060699
0.043384 0.172494 0.089850
0.043350 0.175896 0.107610
0.031259 0.180873 0.060547
-0.009186 0.200962 0.017981
-0.013361 0.197665 0.043618
-0.025974 0.191967 0.005863
-0.011798 0.204484 -0.013904
-0.009653 0.202801 0.076227
-0.031156 0.185207 0.028642
-0.027347 0.185509 0.049027
-0.014718 0.196481 0.058843
-0.024035 0.194339 -0.006297
-0.006501 0.209779 -0.068193
-0.013300 0.199507 -0.086923
-0.050127 0.173739 -0.071344
-0.044238 0.177762 -0.069663
-0.052096 0.171083 -0.090938
-0.062966 0.164024 -0.088713
-0.068445 0.160290 -0.090396
-0.063942 0.165431 -0.062155
-0.052544 0.172927 -0.061337
-0.057584 0.168543 -0.075396
-0.093519 0.131298 -0.072329
-0.096781 0.125694 -0.078612
-0.082435 0.142935 -0.086736
-0.033619 0.185395 -0.007118
-0.040070 0.179683 -0.013531
-0.045356 0.175066 -0.008668
-0.040014 0.179741 -0.012046
-0.063779 0.159374 0.000792
-0.066509 0.158327 -0.004113
-0.056079 0.169515 -0.028168
-0.061358 0.167075 -0.035187
-0.094112 0.130533 -0.070745
-0.103318 0.116609 -0.068469
-0.100649 0.122006 -0.051323
-0.078392 0.151550 -0.029251
-0.083495 0.141775 -0.021989
-0.081218 0.142896 -0.014236
-0.113801 0.082280 -0.056110
-0.109107 0.100895 -0.057666
-0.052490 0.162896 0.041714
-0.051668 0.167344 0.022372
-0.062730 0.156617 0.026661
-0.051150 0.165532 0.034233
-0.040657 0.174505 0.038947
-0.042851 0.172710 0.036752
-0.101405 0.116984 -0.023201
-0.091117 0.128070 -0.008101
-0.091838 0.127451 -0.010153
-0.086400 0.134553 -0.009998
-0.079272 0.139440 0.014437
-0.063176 0.150426 0.052668
-0.089064 0.126017 0.016658
-0.115968 0.064819 -0.013132
-0.113938 0.081070 -0.032461
-0.111952 0.093375 -0.042731
-0.109425 0.088787 -0.009855
-0.105925 0.096652 0.001017
-0.109755 0.092306 -0.019923
-0.115759 0.047210 -0.021042
-0.115012 0.057842 -0.002387
-0.114077 0.037955 -0.010041
-0.087199 0.125203 0.027433
-0.085780 0.120729 0.040427
-0.063373 0.147720 0.059075
-0.110234 0.028393 0.028065
-0.110754 0.031880 0.024987
-0.111146 0.026411 0.014317
-0.099909 0.004187 0.042315
-0.100875 0.008454 0.052599
-0.106364 0.075780 0.025962
-0.108989 0.076766 0.012970
-0.105367 0.088689 0.015400
-0.101228 0.071634 0.053971
-0.107890 0.065215 0.030706
-0.103607 0.063256 0.049586
-0.110720 0.044054 0.030462
-0.113742 0.062730 0.007724
-0.090783 0.100956 0.052482
-0.095347 0.109644 0.028555
-0.097424 0.087534 0.047826
-0.097601 0.008822 0.061542
-0.089857 -0.011231 0.058884
-0.074443 -0.016510 0.079556
-0.074272 -0.019357 0.077310
-0.095796 0.042447 0.082021
-0.099661 0.033588 0.074047
-0.098026 0.044425 0.074853
-0.101945 0.021094 0.065589
-0.096686 0.019481 0.074800
-0.072017 -0.006521 0.099433
-0.067538 -0.016343 0.108433
-0.089652 0.025491 0.102250
-0.085438 0.017825 0.110581
-0.092957 0.059616 0.091952
-0.088568 0.063996 0.110165
-0.093205 0.060529 0.090796
-0.096215 0.065906 0.077391
-0.089241 0.055156 0.108971
-0.084054 0.102434 0.076270
-0.088546 0.078003 0.099118
-0.088021 0.088939 0.082199
-0.091559 0.084184 0.074649
-0.079880 0.005595 0.115026
-0.089686 0.057982 0.116015
-0.085664 0.010930 0.119282
-0.093490 0.045331 0.123861
-0.088855 0.066005 0.118803
-0.096381 0.008966 0.130770
-0.091664 -0.000600 0.123822
-0.095959 0.034828 0.129397
-0.098652 0.023856 0.137155
-0.096537 0.044397 0.148608
-0.077247 -0.023693 0.120834
-0.090637 -0.013356 0.123929
-0.099607 -0.029253 0.148348
-0.100458 -0.012795 0.142533
-0.093784 -0.035387 0.136622
-0.091542 -0.044724 0.126973
-0.081120 -0.049699 0.121235
-0.067093 -0.056063 0.118572
-0.046877 -0.053393 0.134248
-0.057235 -0.065209 0.129054
-0.058914 -0.063504 0.127044
-0.079095 -0.073954 0.124593
-0.092539 -0.066637 0.149925
-0.061053 -0.073712 0.130255
-0.062245 -0.079862 0.132341
-0.072598 -0.078034 0.124896
-0.045874 -0.078354 0.143594
-0.083020 -0.085532 0.142813
-0.083537 -0.087502 0.156927
-0.064982 -0.093265 0.135174
-0.046075 -0.106599 0.149816
-0.048537 -0.114037 0.148683
-0.075340 -0.090927 0.133002
-0.078607 -0.100637 0.140971
-0.055743 -0.135269 0.144442
-0.066031 -0.116116 0.138588
-0.044164 -0.154853 0.155723
-0.078887 -0.105725 0.150149
-0.050975 -0.160253 0.150246
-0.065392 -0.129978 0.141432
-0.062453 -0.145970 0.143415
-0.072669 -0.135940 0.140246
-0.071050 -0.167129 0.143044
-0.074636 -0.144883 0.156538
-0.075773 -0.128470 0.151735
-0.072800 -0.184282 0.143966
-0.076125 -0.159809 0.159148
-0.074245 -0.135945 0.174984
-0.053971 -0.188586 0.149062
-0.075011 -0.181941 0.148229
-0.051076 -0.210801 0.151597
-0.042780 -0.229290 0.155997
-0.040219 -0.255397 0.152918
-0.048839 -0.251219 0.145980
-0.054548 -0.213896 0.148099
-0.064731 -0.252499 0.143718
-0.062508 -0.220640 0.146354
-0.071646 -0.223294 0.146427
-0.083048 -0.248627 0.168446
-0.079137 -0.228346 0.164353
-0.079175 -0.239315 0.175307
-0.081227 -0.251920 0.187599
-0.068839 -0.252243 0.198887
-0.061660 -0.238441 0.197431
-0.050177 -0.255878 0.203499
-0.036683 -0.239505 0.198047
-0.051495 -0.234358 0.197627
-0.054091 -0.213063 0.191649
-0.033811 -0.238302 0.192520
-0.037153 -0.228134 0.195726
-0.031724 -0.248507 0.169240
-0.032479 -0.240057 0.170776
-0.034485 -0.228969 0.166452
-0.035821 -0.209978 0.188441
-0.032150 -0.209245 0.179713
-0.033138 -0.199477 0.177064
-0.035689 -0.184047 0.169072
-0.068609 -0.193766 0.180378
-0.065979 -0.177651 0.186522
-0.073235 -0.171851 0.173955
-0.058842 -0.185397 0.194692
-0.046686 -0.183104 0.194691
-0.065536 -0.143078 0.190162
-0.048123 -0.171213 0.194524
-0.056284 -0.157808 0.194307
-0.055716 -0.161197 0.194399
-0.043354 -0.155834 0.191728
-0.036770 -0.150808 0.172920
-0.039887 -0.138102 0.186329
-0.036668 -0.138727 0.175824
-0.060372 -0.141008 0.194271
-0.037503 -0.131705 0.171726
-0.034117 -0.109300 0.176240
-0.045615 -0.139542 0.192877
-0.037221 -0.127850 0.184337
-0.035222 -0.104811 0.170149
-0.030954 -0.092042 0.176949
-0.037626 -0.094393 0.191011
-0.028203 -0.075465 0.177685
-0.033208 -0.087655 0.186327
-0.034766 -0.072698 0.159962
-0.034261 -0.061181 0.158596
-0.052362 -0.099874 0.200165
-0.051414 -0.113391 0.197611
-0.043463 -0.061250 0.205977
-0.039354 -0.071518 0.198174
-0.053864 -0.090048 0.202719
-0.039322 -0.048699 0.133978
-0.026460 -0.052086 0.177121
-0.037047 -0.050034 0.141402
-0.035726 -0.057957 0.195283
-0.031987 -0.044577 0.142952
-0.026755 -0.045574 0.154808
-0.003916 -0.049258 0.144405
-0.009590 -0.048315 0.153074
-0.009305 -0.031602 0.185761
-0.004787 -0.032174 0.182518
0.000169 -0.032359 0.181292
-0.004741 -0.021720 0.196986
-0.000390 -0.004578 0.219242
-0.024214 -0.031074 0.191173
-0.040085 0.003877 0.215037
-0.016293 0.004381 0.222080
-0.034178 0.016650 0.224458
-0.005850 0.026139 0.242140
-0.041077 -0.000098 0.212822
-0.032614 -0.037291 0.187218
-0.034042 -0.045476 0.190598
-0.047626 0.025918 0.220805
-0.051281 -0.000251 0.217563
-0.018942 0.037360 0.243076
-0.017763 0.043650 0.248412
-0.052102 -0.044812 0.210480
-0.055560 -0.014182 0.215580
-0.063271 -0.068874 0.204769
-0.008315 0.049333 0.270380
-0.031991 0.045533 0.240246
-0.037496 0.050780 0.241047
-0.035168 0.058517 0.255214
-0.046228 0.074387 0.250677
-0.021052 0.058499 0.279464
-0.030826 0.071845 0.279998
-0.043091 0.079621 0.279791
-0.040523 0.055584 0.240184
-0.054591 0.063505 0.301927
-0.026962 0.048083 0.297226
-0.020046 0.042735 0.297553
-0.017605 0.041274 0.297923
-0.032287 0.039024 0.310823
-0.011418 0.030457 0.308737
-0.026984 0.035017 0.311428
-0.003266 0.030003 0.307104
-0.020126 0.016637 0.322538
-0.012195 0.022559 0.316490
-0.002944 0.012024 0.321423
-0.051702 0.084686 0.239625
-0.062057 0.095711 0.218559
-0.053098 0.126487 0.227882
-0.056430 0.121565 0.232213
-0.065387 0.091200 0.212384
-0.050799 0.063704 0.232412
-0.050653 0.132028 0.211475
-0.048428 0.142369 0.210607
-0.063738 0.070656 0.217681
-0.070910 0.104610 0.194856
-0.042309 0.049490 0.234682
-0.069129 0.058931 0.215553
-0.074437 0.068863 0.204715
-0.055807 0.033214 0.219143
-0.043325 0.166715 0.230374
-0.048868 0.160302 0.234377
-0.039480 0.167646 0.220524
-0.046984 0.147312 0.213797
-0.028782 0.191004 0.213258
-0.034123 0.196579 0.234381
-0.028453 0.190526 0.209037
-0.020556 0.204903 0.225425
-0.040071 0.165322 0.204523
-0.036863 0.180418 0.196503
-0.028448 0.193495 0.203255
-0.051941 0.146751 0.194794
-0.051918 0.155540 0.185844
-0.070545 0.113565 0.187689
-0.062469 0.122878 0.195620
-0.026571 0.199669 0.197776
-0.045744 0.181782 0.161318
-0.051517 0.172169 0.150695
-0.032829 0.201273 0.161676
-0.045904 0.182761 0.145617
-0.043410 0.185466 0.165368
-0.018574 0.206193 0.208328
-0.021988 0.213987 0.173647
-0.035483 0.191224 0.126522
-0.017574 0.212063 0.138106
-0.055433 0.164211 0.152821
-0.061975 0.153384 0.150176
-0.065444 0.138126 0.173465
-0.073675 0.122284 0.166402
-0.044362 0.178741 0.123993
-0.043992 0.178956 0.123138
-0.051801 0.172835 0.135092
-0.066319 0.145566 0.146853
-0.055565 0.165285 0.130116
-0.021682 0.198834 0.107071
-0.020298 0.203566 0.121466
-0.028931 0.187532 0.084566
-0.029188 0.186555 0.080605
-0.042333 0.173461 0.088567
-0.041931 0.175755 0.098246
-0.051876 0.164300 0.097253
-0.043187 0.170811 0.077700
-0.037908 0.174415 0.062430
-0.058850 0.157464 0.102571
-0.064787 0.145925 0.081312
-0.074134 0.129252 0.067947
-0.011522 0.218387 0.169956
-0.001806 0.213860 0.119205
0.002457 0.212983 0.116264
-0.076834 0.123092 0.093277
-0.070983 0.135738 0.084502
-0.080069 0.119083 0.067061
-0.069815 0.135199 0.114678
-0.073574 0.129485 0.134383
-0.068905 0.138747 0.129535
-0.082509 0.110701 0.072052
-0.081864 0.105678 0.106323
-0.082656 0.105497 0.088984
-0.077833 0.119521 0.134930
-0.079301 0.114629 0.142322
-0.085720 0.089278 0.139501
-0.083874 0.093562 0.124452
-0.073807 0.130385 0.152778
-0.083066 0.100177 0.159789
-0.088870 0.075929 0.141732
-0.092154 0.066153 0.151221
-0.087881 0.083929 0.158998
-0.083832 0.087723 0.176155
-0.094202 0.055586 0.176178
-0.085691 0.078939 0.177581
-0.079551 0.060941 0.202206
-0.084662 0.071851 0.191519
-0.100498 0.013889 0.183581
-0.098973 0.026399 0.176027
-0.090210 0.035974 0.195803
-0.092731 0.039965 0.192552
-0.102324 0.010007 0.152846
-0.101162 0.013224 0.167043
-0.078349 0.038060 0.210350
-0.088927 0.019585 0.199172
-0.078720 0.038721 0.209687
-0.056922 0.027174 0.217405
-0.071706 0.037634 0.213406
-0.067937 0.002809 0.214709
-0.060490 -0.006381 0.215905
-0.074647 -0.034606 0.206582
-0.101337 -0.003662 0.181859
-0.099111 -0.013373 0.175588
-0.095779 -0.025015 0.172372
-0.090243 -0.005262 0.199523
-0.084742 -0.019667 0.201535
-0.075258 -0.037325 0.205863
-0.082595 -0.014360 0.206608
-0.098306 -0.026384 0.161863
-0.094593 -0.041488 0.168498
-0.079306 -0.055857 0.193070
-0.091566 -0.064375 0.167367
-0.083479 -0.063331 0.184063
-0.087740 -0.071845 0.170394
-0.066768 -0.085119 0.200974
-0.079554 -0.098257 0.170002
-0.068558 -0.096335 0.196812
-0.078865 -0.107017 0.169190
-0.067355 -0.099531 0.198918
-0.075162 -0.122395 0.183099
-0.066629 -0.127387 0.195044
0.018362 0.201110 0.102970
0.014955 0.206741 0.112793
0.026042 0.202358 0.128723
0.004623 0.218939 0.161412
-0.003337 0.219109 0.163149
0.027336 0.210608 0.166767
-0.010249 0.214390 0.199617
-0.007173 0.214094 0.203084
-0.008934 0.212403 0.219626
0.010754 0.218748 0.176609
0.004446 0.212319 0.229663
0.007178 0.212441 0.218690
0.013921 0.210412 0.219691
0.015438 0.214494 0.185184
0.035776 0.195135 0.178091
0.031256 0.203063 0.152220
0.046224 0.166458 0.233612
0.022262 0.202948 0.225798
0.028341 0.194756 0.226204
0.027559 0.192918 0.206957
0.044560 0.164640 0.231131
0.046651 0.148915 0.223237
0.049850 0.141564 0.225991
0.045440 0.151287 0.219813
0.046318 0.149459 0.204438
0.040419 0.164706 0.204210
0.054498 0.122323 0.229223
0.050840 0.130342 0.214076
0.058384 0.101592 0.233897
0.048148 0.149821 0.199507
0.048930 0.165738 0.181600
0.056427 0.112606 0.217234
0.052332 0.124330 0.215232
0.058669 0.097154 0.225337
0.046297 0.182131 0.148283
0.035625 0.196486 0.154001
0.048987 0.176115 0.156511
0.046565 0.177919 0.170548
0.030784 0.203128 0.140435
0.034099 0.193304 0.126784
0.041563 0.180755 0.119055
0.051690 0.170538 0.125165
0.061631 0.146623 0.170808
0.062953 0.150840 0.126648
0.057378 0.161955 0.132879
0.073261 0.107874 0.187405
0.065842 0.121348 0.190126
0.060803 0.126584 0.195603
0.066946 0.133115 0.175590
0.080627 0.092628 0.186363
0.057059 0.126828 0.202648
0.068365 0.097179 0.205477
0.075870 0.123192 0.123791
0.071691 0.131892 0.122515
0.079136 0.119776 0.079462
0.078516 0.121068 0.079033
0.066356 0.143725 0.098549
0.066005 0.143036 0.113115
0.076858 0.122188 0.140215
0.081160 0.108261 0.154765
0.080070 0.109229 0.158863
0.082084 0.107194 0.095427
0.082982 0.100688 0.100349
0.081262 0.112038 0.095269
0.086521 0.080272 0.126863
0.085095 0.089986 0.132382
0.089467 0.092523 0.069374
0.095763 0.080673 0.061916
0.087942 0.095584 0.070843
0.090276 0.070929 0.161862
0.090329 0.070700 0.161854
0.087990 0.083424 0.151432
0.087170 0.084195 0.144856
0.087471 0.074790 0.124305
0.068068 0.089916 0.208174
0.078064 0.088000 0.192064
0.052093 0.074123 0.235861
0.083311 0.085217 0.184119
0.093708 0.056609 0.184392
0.064744 0.067178 0.217277
0.078771 0.064146 0.201640
0.089699 0.061579 0.190501
0.051301 0.072949 0.236338
0.096012 0.050070 0.166580
0.096974 0.041403 0.177519
0.097420 0.039101 0.168871
0.095809 0.032310 0.189498
0.095252 0.039143 0.189654
0.055981 0.042130 0.222791
0.006813 0.038533 0.251780
0.006028 0.046087 0.262265
0.022131 0.031795 0.237883
0.001412 0.019047 0.239106
0.040776 0.044188 0.234036
0.010807 -0.001069 0.220943
0.033820 0.024132 0.227561
0.032434 0.018449 0.225916
0.073882 0.028058 0.213057
0.082333 0.031908 0.205983
0.087220 0.024967 0.200485
0.051766 0.003476 0.217629
0.062552 0.019865 0.216123
0.029692 -0.000134 0.215788
0.021667 -0.010838 0.209769
0.040782 0.003167 0.214494
0.045938 -0.007839 0.211403
0.016828 -0.024345 0.198935
0.009523 -0.044391 0.165104
0.011918 -0.042581 0.173119
0.029040 -0.045141 0.150206
0.008650 -0.048961 0.140794
0.032284 -0.048399 0.157822
0.033016 -0.054156 0.161314
0.030491 -0.064698 0.167933
0.038201 -0.079972 0.154264
0.041665 -0.026410 0.200344
0.047205 -0.034333 0.210317
0.041961 -0.055797 0.204825
0.028016 -0.080930 0.179248
0.035687 -0.097515 0.164650
0.044868 -0.058578 0.208589
0.042477 -0.085232 0.200661
0.032818 -0.098867 0.172328
0.040073 -0.120227 0.157258
0.048912 -0.047754 0.210767
0.064000 -0.042936 0.207634
0.067907 -0.012629 0.212771
0.073301 -0.028196 0.208233
0.038555 -0.132634 0.166060
0.038125 -0.134640 0.167974
0.044049 -0.107219 0.197237
0.038652 -0.121647 0.187813
0.053825 -0.075109 0.206518
0.059620 -0.071133 0.206046
0.068289 -0.069542 0.203871
0.059273 -0.116942 0.199660
0.034863 -0.149753 0.177212
0.035882 -0.167999 0.168942
0.034425 -0.171352 0.171990
0.037946 -0.161579 0.186739
0.032716 -0.170435 0.180833
0.032969 -0.183653 0.174862
0.036851 -0.181694 0.187752
0.046958 -0.157149 0.194862
0.047669 -0.176415 0.195218
0.053324 -0.177191 0.195302
0.074958 -0.117342 0.186693
0.064713 -0.161721 0.190406
0.068763 -0.150639 0.186394
0.073176 -0.091561 0.190970
0.068310 -0.071202 0.203788
0.072967 -0.140574 0.181435
0.078187 -0.107737 0.177911
0.076438 -0.063688 0.193888
0.076473 -0.036197 0.204847
0.083244 -0.013504 0.206185
0.086757 -0.007353 0.203772
0.093890 -0.003411 0.194967
0.099251 -0.009188 0.183622
0.101943 -0.011518 0.161155
0.101743 -0.009786 0.166147
0.102293 0.009160 0.156185
0.097376 0.041736 0.156808
0.094685 -0.060335 0.163661
0.100347 -0.019362 0.158088
0.098854 -0.049311 0.158342
0.095562 0.044463 0.140019
0.096705 0.041048 0.145141
0.089505 0.065796 0.123787
0.093592 -0.019739 0.133210
0.092693 -0.000484 0.125622
0.093602 0.021184 0.124075
0.094599 -0.063252 0.160787
0.079816 -0.091029 0.174538
0.090627 0.047357 0.113452
0.089141 -0.076480 0.156656
0.089994 0.048911 0.106281
0.097373 0.068534 0.072191
0.089717 0.055872 0.106168
0.090080 0.060035 0.104169
0.092988 0.067873 0.090930
0.082780 0.000475 0.118343
0.091416 0.026823 0.100302
0.081396 0.011562 0.099698
0.096830 0.036654 0.081135
0.106967 0.023908 0.056423
0.100921 0.037389 0.069031
0.103172 0.021918 0.064237
0.099634 0.022440 0.073275
0.106509 0.044074 0.047985
0.107651 0.043481 0.043559
0.104738 0.043109 0.055868
0.105191 0.042679 0.054220
0.070971 -0.009798 0.104363
0.109806 0.027511 0.032713
0.111936 0.026433 0.004283
0.110784 0.020633 0.013067
0.112792 0.028790 -0.003530
0.116033 0.055661 -0.016194
0.115557 0.057535 -0.008887
0.090204 -0.009343 0.059809
0.093766 0.010238 0.069453
0.105941 0.010870 0.019144
0.100887 0.003927 0.032696
0.106378 0.013880 0.028526
0.086772 -0.013742 0.062048
0.064617 -0.024875 0.088055
0.113790 0.030803 -0.014959
0.116933 0.044784 -0.041868
0.117692 0.051786 -0.042503
0.112470 0.052560 -0.079225
0.113558 0.045951 -0.067930
0.114063 0.062134 -0.074497
0.094592 -0.007375 0.042196
0.092002 -0.014524 0.043501
0.112104 0.052166 -0.081338
0.110814 0.026934 -0.064695
0.108172 0.046815 -0.089249
0.105194 0.026504 -0.096398
0.108852 0.044177 -0.095884
0.103970 0.000305 -0.028459
0.109786 0.013755 -0.007256
0.108187 0.010395 -0.010720
0.100992 -0.010049 0.002771
0.098066 -0.019451 0.007358
0.105213 0.001407 0.003763
0.103236 0.012797 -0.074373
0.091425 -0.007454 -0.073282
0.092519 -0.015358 -0.053915
0.086604 -0.020261 -0.063790
0.093226 -0.005268 -0.087766
0.088196 -0.014190 -0.079327
0.098226 -0.000038 -0.100423
0.077090 -0.032338 -0.058980
0.074005 -0.032873 -0.067263
0.077180 -0.040915 -0.022679
0.085441 -0.033155 -0.012217
0.083383 -0.034600 -0.019016
0.061663 -0.048279 -0.059899
0.067274 -0.047698 -0.042404
0.087477 -0.026600 -0.091201
0.101303 -0.005368 -0.106992
0.098152 -0.035717 -0.112347
0.107437 -0.015268 -0.119737
0.071303 -0.044142 -0.083677
0.062698 -0.054951 -0.034008
0.056377 -0.054954 -0.068650
0.084400 -0.035195 0.000697
0.069636 -0.049931 0.012087
0.093371 -0.026648 0.009193
0.082018 -0.031732 0.029706
0.083388 -0.031453 0.026404
0.088154 -0.023459 0.034588
0.044842 -0.071695 -0.039175
0.062420 -0.055988 -0.025315
0.045010 -0.072548 -0.028046
0.068688 -0.039453 0.044392
0.071251 -0.036063 0.046605
0.063618 -0.052468 0.025170
0.068999 -0.028188 0.071822
0.071587 -0.025326 0.073311
0.044987 -0.072954 0.011969
0.051467 -0.066867 -0.006576
0.051029 -0.057198 0.049541
0.059091 -0.050538 0.040795
0.051118 -0.059079 0.043963
0.047811 -0.051835 0.076905
0.037235 -0.064036 0.055038
0.055013 -0.037032 0.104535
0.061615 -0.025099 0.113264
0.074716 -0.006184 0.114729
0.032726 -0.059656 0.071530
0.084150 -0.038303 0.122111
0.077633 -0.041246 0.120638
0.096817 -0.051865 0.150374
0.094999 -0.051904 0.142349
0.087150 -0.076073 0.138706
0.092673 -0.063902 0.142857
0.087625 -0.060128 0.122251
0.076910 -0.075609 0.123858
0.057434 -0.035164 0.115207
0.046486 -0.046713 0.120126
0.034280 -0.048946 0.109468
0.060298 -0.065012 0.126679
0.012692 -0.054571 0.108242
0.006402 -0.051033 0.128500
0.014611 -0.057121 0.096482
0.004779 -0.062900 0.087433
0.026513 -0.060881 0.071641
0.027604 -0.060268 0.072544
0.067132 -0.081456 0.129006
0.065920 -0.083215 0.130708
0.067714 -0.090048 0.132418
0.005579 -0.069909 0.064785
0.021275 -0.073204 0.039133
0.033785 -0.066465 0.048729
0.006035 -0.082044 0.024066
0.010476 -0.078620 0.032014
0.032442 -0.077345 -0.003146
0.001629 -0.085316 -0.011580
0.002160 -0.085195 -0.015380
0.011542 -0.083341 -0.025213
0.018361 -0.081810 -0.015441
0.023895 -0.080145 0.014281
0.017047 -0.081532 -0.031672
0.041990 -0.074039 -0.031060
0.011062 -0.078581 -0.046961
0.042011 -0.072735 -0.037499
0.011570 -0.073580 -0.064547
0.010080 -0.068729 -0.077555
0.050906 -0.061250 -0.074442
0.014394 -0.065623 -0.092524
0.002432 -0.066287 -0.096842
0.008249 -0.064668 -0.112897
0.020078 -0.067415 -0.136883
0.034311 -0.066666 -0.091616
0.029611 -0.068596 -0.125172
0.027590 -0.070586 -0.134635
0.043468 -0.070186 -0.104579
0.033792 -0.087073 -0.146359
0.036421 -0.093229 -0.143217
0.037698 -0.099902 -0.143944
0.082568 -0.055265 -0.099971
0.054750 -0.078247 -0.101630
0.102469 -0.048057 -0.122144
0.092930 -0.062064 -0.118952
0.038234 -0.096862 -0.127834
0.041029 -0.128485 -0.143184
0.047040 -0.101779 -0.122746
0.042801 -0.094753 -0.123813
0.099259 -0.063645 -0.125670
0.078456 -0.083205 -0.112684
0.099394 -0.070863 -0.141506
0.095901 -0.085486 -0.131744
0.058649 -0.112151 -0.118196
0.050483 -0.122454 -0.126111
0.096718 -0.080839 -0.140299
0.088808 -0.099174 -0.127166
0.082366 -0.092402 -0.119082
0.072208 -0.111196 -0.116725
0.093461 -0.092124 -0.144149
0.087482 -0.121333 -0.134480
0.084297 -0.089260 -0.173565
0.084795 -0.106681 -0.164308
0.087889 -0.072273 -0.177565
0.102794 -0.051006 -0.160363
0.078162 -0.080283 -0.185011
0.086882 -0.050139 -0.188365
0.070753 -0.079289 -0.188598
0.063886 -0.071727 -0.193254
0.053423 -0.090604 -0.189338
0.046712 -0.102191 -0.179126
0.042853 -0.096473 -0.176372
0.075962 -0.103495 -0.180065
0.079340 -0.117105 -0.168918
0.049938 -0.149907 -0.174094
0.078409 -0.135545 -0.164417
0.085162 -0.132027 -0.139432
0.073627 -0.153407 -0.172042
0.049775 -0.160038 -0.173693
0.083894 -0.147486 -0.138286
0.079891 -0.150410 -0.133187
0.041926 -0.192103 -0.159578
0.066077 -0.173004 -0.179011
0.077497 -0.165449 -0.164353
0.069792 -0.177013 -0.179328
0.080644 -0.170119 -0.157930
0.078970 -0.191602 -0.159512
0.049213 -0.212267 -0.170801
0.051188 -0.219386 -0.176372
0.043194 -0.219695 -0.159191
0.058263 -0.212827 -0.184694
0.053387 -0.227452 -0.180544
0.046688 -0.242418 -0.171147
0.055192 -0.239371 -0.178528
0.059852 -0.228236 -0.180994
0.082074 -0.216003 -0.160833
0.076787 -0.224891 -0.172305
0.073390 -0.240612 -0.177440
0.085177 -0.251719 -0.162116
0.094339 -0.257680 -0.133561
0.080969 -0.212256 -0.162487
0.092126 -0.249498 -0.132517
0.087276 -0.235558 -0.139083
0.078970 -0.244957 -0.115165
0.076015 -0.222952 -0.127579
0.053648 -0.234027 -0.121215
0.044724 -0.253449 -0.120949
0.039714 -0.249384 -0.139819
0.039915 -0.229164 -0.143601
0.056500 -0.220686 -0.126925
0.042901 -0.217396 -0.146556
0.056902 -0.196221 -0.131189
0.042577 -0.191553 -0.149275
0.060149 -0.191612 -0.129555
0.042206 -0.172290 -0.141117
0.050997 -0.167875 -0.133617
0.073229 -0.166390 -0.132466
0.067670 -0.150285 -0.126889
0.057859 -0.137877 -0.126245
0.042168 -0.157446 -0.140537
0.044461 -0.147085 -0.135343
0.043427 -0.157186 -0.159249
0.041271 -0.133348 -0.137883
0.041942 -0.146565 -0.149957
0.014118 0.008495 0.326473
0.003518 0.003865 0.326765
0.009171 0.021669 0.316452
0.009111 0.025570 0.312875
0.019676 0.023869 0.317612
0.040405 0.046307 0.309000
0.033981 0.046005 0.304112
0.025483 0.053831 0.290936
0.034425 0.049097 0.301270
0.017852 0.055902 0.271924
0.046757 0.066883 0.292967
0.050556 0.070068 0.292711
0.036125 0.004042 0.371705
0.019769 -0.023808 0.377642
0.010908 -0.055881 0.375635
0.007030 -0.076498 0.378016
0.016631 -0.069472 0.383269
0.002603 -0.097492 0.376174
0.020478 -0.075337 0.392497
0.019768 -0.086810 0.396377
0.022868 -0.055946 0.398085
0.026903 -0.027377 0.392412
0.028192 -0.020898 0.392432
0.016984 -0.050690 0.408787
0.026419 -0.026827 0.402470
0.006787 -0.024195 0.418546
0.007777 -0.100198 0.405236
0.009664 -0.103608 0.403247
0.014865 -0.028030 0.415515
0.026762 -0.013816 0.405556
0.002671 0.019403 0.420939
0.011415 -0.132431 0.396375
0.017135 -0.114323 0.384134
0.016148 -0.134025 0.387539
0.011622 -0.141710 0.377079
0.014236 -0.154700 0.379919
0.007051 -0.195737 0.377014
0.002340 -0.167828 0.396231
0.013281 -0.206538 0.392327
0.014484 -0.228420 0.385045
0.055347 0.022228 0.333476
0.055435 0.044234 0.332705
0.059773 0.014209 0.356619
0.059232 0.015275 0.350369
0.050570 0.025839 0.366470
0.046698 0.045222 0.366303
0.041046 0.020718 0.376948
0.032977 0.005153 0.387331
0.031926 0.008606 0.393553
0.025972 -0.006342 0.407089
0.037860 0.032078 0.377766
0.031979 0.025883 0.391680
0.019544 0.010005 0.415898
0.008892 0.015148 0.419240
0.011802 0.028927 0.417728
0.026211 0.053611 0.403283
0.006282 0.051195 0.415293
0.021961 0.078446 0.401910
0.026782 0.063974 0.398620
0.005392 0.088835 0.402923
0.026134 0.072548 0.394908
0.015107 0.102873 0.393062
0.004534 0.114281 0.393189
0.027696 0.089952 0.383427
0.032327 0.067362 0.377127
0.046715 0.060812 0.354772
0.029534 0.109370 0.372606
0.046770 0.069224 0.346545
0.047901 0.068317 0.342608
0.042255 0.084689 0.350427
0.048307 0.098204 0.349389
0.047326 0.081507 0.338990
0.054918 0.101610 0.342597
0.056353 0.078957 0.319262
0.061279 0.080037 0.303254
0.058008 0.094123 0.322360
0.061535 0.085338 0.304525
0.060983 0.100330 0.301997
0.060984 0.112877 0.324301
0.047544 0.081537 0.272285
0.048590 0.058675 0.274436
0.054823 0.032463 0.271384
0.068726 0.101145 0.269890
0.070935 0.033806 0.272242
0.065877 0.052176 0.273441
0.060123 0.055087 0.273369
0.092037 0.017200 0.267241
0.083119 0.032966 0.269753
0.089799 0.033794 0.268298
0.067566 0.077881 0.268723
0.059531 0.084503 0.271311
0.078524 0.094846 0.266985
0.094867 0.053255 0.266456
0.088211 0.059951 0.267883
0.085176 0.077945 0.267016
0.100318 0.064232 0.264363
0.125179 0.047204 0.253566
0.100844 0.068417 0.263595
0.113780 0.062131 0.258915
0.102976 0.074036 0.263290
0.132545 0.050719 0.251465
0.106163 0.093395 0.260975
0.127734 0.079544 0.255651
0.113956 0.093155 0.259339
0.155954 0.081447 0.238178
0.154372 0.073128 0.240636
0.155352 0.090272 0.237606
0.150619 0.098946 0.241269
0.170720 0.105063 0.220342
0.172707 0.095865 0.213743
0.178014 0.104924 0.210312
0.134250 0.102776 0.247351
0.082018 0.110179 0.264744
0.166818 0.126882 0.220516
0.164047 0.114021 0.224304
0.193349 0.123749 0.198916
0.194592 0.135267 0.195291
0.121970 0.136700 0.240892
0.124881 0.125052 0.243998
0.112777 0.127273 0.248777
0.162932 0.137953 0.220740
0.198692 0.145374 0.189188
0.176240 0.150915 0.205902
0.148714 0.140807 0.226988
0.127321 0.141088 0.236826
0.199019 0.157163 0.184690
0.162598 0.171782 0.208328
0.163411 0.162254 0.211238
0.186944 0.190814 0.183482
0.171578 0.183890 0.198141
0.168255 0.204591 0.194394
0.156807 0.178201 0.210786
0.145614 0.208439 0.210924
0.076701 0.230735 0.230862
0.054804 0.225213 0.243165
0.128250 0.216782 0.218277
0.137355 0.191831 0.219911
0.099902 0.215187 0.239007
0.118299 0.210346 0.223691
0.119079 0.186740 0.229720
0.115143 0.181198 0.232261
0.119064 0.158800 0.233889
0.138500 0.163603 0.224576
0.137332 0.180210 0.222435
0.132156 0.153041 0.229432
0.088335 0.179679 0.245105
0.076513 0.210564 0.256648
0.087632 0.168892 0.247613
0.080641 0.182524 0.250218
0.101745 0.138269 0.249986
0.094486 0.136511 0.254257
0.079578 0.146341 0.256621
0.081951 0.160524 0.252869
0.066543 0.132449 0.265065
0.073465 0.114374 0.266194
0.063577 0.113269 0.284666
0.065048 0.117679 0.297004
0.059320 0.142658 0.272863
0.062259 0.133972 0.281548
0.066113 0.127285 0.310310
0.061280 0.126254 0.328686
0.058753 0.120869 0.333309
0.062250 0.141263 0.293339
0.058393 0.196438 0.278364
0.063774 0.184461 0.287180
0.060307 0.180564 0.294712
0.053486 0.154370 0.291555
0.055146 0.152302 0.290548
0.047986 0.176327 0.309173
0.061468 0.144115 0.318273
0.045078 0.167801 0.324911
0.053044 0.152350 0.328834
0.058968 0.148422 0.332680
0.054956 0.186089 0.300816
0.037882 0.204015 0.315975
0.036932 0.191705 0.332083
0.037144 0.180250 0.345946
0.022099 0.202136 0.347688
0.028970 0.170041 0.364943
0.024057 0.183273 0.359234
0.032255 0.165003 0.363779
0.004407 0.202173 0.355232
0.004904 0.185233 0.364608
0.009466 0.206207 0.347705
0.015406 0.210075 0.338122
0.009075 0.217839 0.321646
0.026654 0.220478 0.308392
0.000746 0.221274 0.298866
0.011804 0.215298 0.278928
0.026566 0.220697 0.296690
0.001887 0.219146 0.271661
0.039202 0.212407 0.288792
0.054514 0.210344 0.269342
0.052555 0.221285 0.259212
0.051802 0.221323 0.251887
-0.003130 0.149098 0.383572
0.018208 0.149339 0.376524
-0.000462 0.125260 0.391293
0.018515 0.141241 0.378313
0.013810 0.130932 0.384442
0.028974 0.146843 0.371547
0.029387 0.129925 0.373703
0.046536 0.126949 0.361429
0.052351 0.132954 0.356296
-0.002922 0.007892 0.351330
-0.009989 0.003451 0.354846
-0.004086 -0.037728 0.370523
-0.024682 -0.010909 0.377599
-0.021528 -0.030054 0.380176
-0.020207 -0.060402 0.384423
-0.015520 -0.088574 0.383718
-0.008861 -0.095195 0.377608
-0.008537 -0.100450 0.377019
-0.002395 -0.132346 0.372993
-0.008569 -0.135406 0.375153
-0.019056 -0.093510 0.393773
-0.019151 -0.090845 0.391536
-0.015088 -0.150152 0.384908
-0.023447 -0.042389 0.391469
-0.025672 -0.031484 0.390028
-0.013474 -0.151705 0.391754
-0.006990 -0.176293 0.375373
0.000351 -0.175790 0.372725
-0.016791 -0.124086 0.392847
-0.001840 -0.126886 0.401534
-0.014792 -0.098934 0.399494
-0.006172 -0.096695 0.406459
-0.004051 -0.066707 0.413777
-0.012955 -0.062529 0.411242
-0.009041 -0.065191 0.412394
-0.005881 -0.038147 0.417490
-0.019944 -0.047345 0.405662
-0.000681 -0.024805 0.420672
-0.019023 -0.036945 0.409590
-0.026487 -0.030383 0.397134
-0.012426 -0.021948 0.417009
-0.020692 -0.025389 0.410425
-0.029761 -0.010077 0.392306
-0.036528 0.007208 0.379095
-0.025279 0.007776 0.406747
-0.034379 0.015781 0.386051
-0.019495 0.024134 0.415763
-0.026071 0.017975 0.405180
-0.019814 0.032723 0.414838
-0.014359 0.056249 0.412826
-0.029302 0.052333 0.396662
-0.023773 0.039984 0.408573
-0.020314 0.068288 0.407410
-0.013850 0.082915 0.401570
-0.030768 0.044936 0.393293
-0.032503 0.033417 0.388664
-0.031733 0.067015 0.380966
-0.015129 0.108741 0.390445
-0.011666 0.112440 0.390523
