0.024455 0.004025 0.279494
0.031188 0.016746 0.277594
0.036668 0.043304 0.307152
0.031014 0.001585 0.261220
0.028187 -0.009183 0.253774
0.035839 -0.011698 0.233317
0.036600 0.017840 0.260242
0.032833 0.013101 0.268192
0.039219 0.001079 0.240888
0.041609 0.000219 0.234569
0.041904 0.011336 0.238500
0.038144 0.049388 0.308404
0.036764 0.045053 0.295696
0.038868 0.062406 0.288605
0.039478 0.036934 0.262689
0.040067 0.057242 0.267706
0.041083 0.028307 0.254397
0.039496 0.074444 0.286360
0.040202 0.076486 0.300798
0.042170 0.064783 0.254932
0.040835 0.078858 0.262942
0.046070 0.029669 0.234506
0.045231 0.051585 0.242680
0.045360 0.059731 0.241991
0.055892 0.017637 0.214035
0.057780 0.027752 0.214290
0.050399 0.034290 0.226201
0.063696 0.009186 0.200738
0.063791 0.013029 0.201721
0.076547 0.022147 0.185150
0.075611 0.022286 0.186584
0.057976 0.040513 0.213250
0.052165 0.050394 0.223133
0.066543 0.041229 0.198595
0.048068 0.071374 0.227631
0.050063 0.055502 0.226418
0.067403 0.055778 0.193451
0.084844 0.036977 0.165492
0.082729 0.040140 0.169102
0.058228 0.060336 0.208765
0.070067 0.062821 0.186341
0.045471 0.083862 0.231610
0.039037 0.091120 0.264564
0.042266 0.106338 0.224883
0.043005 0.097192 0.229886
0.034516 0.107034 0.272275
0.039368 0.086538 0.276065
0.039062 0.087357 0.274826
0.036774 0.111682 0.298209
0.034170 0.109617 0.268171
0.034601 0.114962 0.244869
0.036151 0.114874 0.299108
0.027108 0.129447 0.262323
0.029980 0.128864 0.294368
0.035138 0.120499 0.235115
0.020534 0.141544 0.288028
0.022032 0.141752 0.301676
0.009075 0.154742 0.292652
0.019474 0.142618 0.253099
0.019078 0.141152 0.267665
0.029272 0.136214 0.235025
0.001666 0.159532 0.296659
0.014738 0.154096 0.243034
0.004435 0.158521 0.269194
0.001026 0.162182 0.255710
-0.007786 0.153582 0.278421
-0.006925 0.156528 0.297227
-0.015799 0.148002 0.301972
-0.006526 0.154893 0.272597
-0.002736 0.159679 0.268348
-0.018471 0.140447 0.277295
-0.016626 0.143069 0.269170
-0.029543 0.126983 0.292669
-0.027858 0.123399 0.274557
-0.035470 0.114955 0.300315
-0.033612 0.109196 0.275693
-0.017773 0.143512 0.255394
-0.030692 0.117077 0.265446
-0.036694 0.100220 0.287397
-0.037012 0.093371 0.275920
-0.039379 0.078367 0.299588
-0.027977 0.127689 0.250186
-0.036734 0.099898 0.258600
-0.038580 0.082075 0.275924
-0.037949 0.058059 0.300070
-0.041180 0.080477 0.252442
-0.038134 0.092801 0.260382
-0.039897 0.076928 0.263206
-0.036220 0.045094 0.301227
-0.033749 0.037852 0.307057
-0.040283 0.058279 0.262857
-0.039802 0.055573 0.263800
-0.030453 0.028243 0.301684
-0.019498 0.015321 0.314787
-0.014526 0.004614 0.305161
-0.017053 0.004195 0.298170
-0.014510 -0.003259 0.288265
-0.030539 0.025037 0.284804
-0.029193 0.007734 0.271292
-0.017237 -0.001983 0.286370
-0.021017 -0.003221 0.276847
-0.012671 -0.019068 0.264524
-0.034341 0.023739 0.270191
-0.041308 0.050558 0.254475
-0.027880 -0.005519 0.258049
-0.034468 0.004436 0.254137
-0.020420 -0.018209 0.250172
-0.029304 -0.008184 0.250005
-0.005103 -0.033209 0.244398
-0.041680 0.017166 0.240813
-0.043042 0.045397 0.246372
-0.038062 -0.004890 0.234905
-0.044467 0.012632 0.230399
-0.027028 -0.021827 0.233255
-0.041067 -0.014355 0.217042
-0.045585 -0.009937 0.214044
-0.045713 0.052588 0.237917
-0.042962 0.071654 0.245340
-0.050353 0.014323 0.219801
-0.052942 0.016989 0.217061
-0.055839 0.026066 0.216004
-0.046741 0.067208 0.230937
-0.038747 0.098019 0.243514
-0.058064 0.049688 0.209823
-0.052914 0.053927 0.219351
-0.042728 0.092468 0.231765
-0.039962 0.109636 0.227836
-0.035978 0.110845 0.241954
-0.055097 0.077981 0.205151
-0.053377 0.083740 0.206564
-0.045344 0.095088 0.221130
-0.034204 0.120318 0.235687
-0.025225 0.135358 0.246606
-0.050448 0.095091 0.205999
-0.050532 0.093798 0.207084
-0.042051 0.124409 0.203472
-0.018310 0.148455 0.240810
-0.031929 0.138582 0.218866
-0.021367 0.151719 0.225995
-0.028362 0.149787 0.209087
-0.041492 0.131149 0.194887
-0.022965 0.160704 0.201935
0.003889 0.164154 0.250050
-0.007570 0.172090 0.219989
0.007223 0.167560 0.233411
0.007452 0.174083 0.217997
0.024813 0.154597 0.212187
0.020367 0.155315 0.224631
0.036978 0.131509 0.214483
0.042773 0.120003 0.209083
0.031603 0.135571 0.227422
0.047018 0.104804 0.210835
0.044566 0.108199 0.215923
0.016878 0.167355 0.208541
0.035625 0.144907 0.197456
0.059434 0.091140 0.189476
0.052236 0.105091 0.194699
0.068405 0.074234 0.182176
0.046076 0.133974 0.175340
0.055727 0.110732 0.179231
0.074374 0.070877 0.169265
0.069702 0.080851 0.173356
0.090702 0.031697 0.153572
0.075285 0.057870 0.178056
0.077907 0.073773 0.155853
0.071756 0.087523 0.158405
0.058320 0.109384 0.171967
0.056902 0.117166 0.164344
0.088692 0.041078 0.148598
0.087226 0.047412 0.148157
0.082597 0.066266 0.142132
0.081089 0.069735 0.148349
0.089090 0.040883 0.126509
0.089526 0.039043 0.123403
0.058936 0.116577 0.157507
0.062331 0.112772 0.150783
0.084410 0.054965 0.113657
0.085961 0.033906 0.103471
0.074397 0.088281 0.127087
0.071646 0.095196 0.139623
0.080078 0.070572 0.115647
0.075688 0.083033 0.116382
0.057708 0.123990 0.137214
0.062187 0.115014 0.137952
0.083286 0.031720 0.068204
0.083872 0.028763 0.092200
0.078000 0.001626 0.079906
0.080637 0.011820 0.086901
0.081644 0.012454 0.063775
0.073212 0.084668 0.106387
0.078134 0.064151 0.093294
0.080235 -0.001560 0.057722
0.067117 -0.029418 0.077319
0.079841 0.058705 0.086831
0.083014 0.044495 0.053584
0.077175 0.070111 0.067544
0.073775 0.079092 0.076522
0.075201 0.075130 0.074295
0.072789 -0.023310 0.056730
0.060446 -0.040697 0.081894
0.051779 -0.051947 0.057883
0.086575 0.010970 0.040083
0.084378 0.004405 0.044464
0.087978 0.005205 0.029999
0.089825 0.008768 0.024888
0.089611 0.023709 0.031408
0.083063 0.048936 0.048223
0.083857 0.048032 0.044942
0.074258 -0.032172 0.031622
0.080134 -0.026420 0.022416
0.064589 -0.041329 0.047431
0.088956 -0.007159 0.016137
0.084524 -0.007117 0.035203
0.090992 -0.014259 0.001677
0.055367 -0.049794 0.052453
0.034815 -0.069330 0.030930
0.025400 -0.073257 0.032203
0.075741 -0.032849 0.024557
0.066458 -0.049024 0.022898
0.065545 -0.042251 0.041733
0.064482 -0.050471 0.023399
0.061938 -0.053346 0.020266
0.025348 -0.077840 0.006120
0.038415 -0.071282 0.012245
0.005830 -0.083368 0.003589
0.003855 -0.084264 -0.004494
-0.011716 -0.085675 -0.017233
-0.007689 -0.084241 -0.004288
0.001585 -0.086334 -0.023215
0.053658 -0.065039 -0.010428
0.057019 -0.061227 0.000116
0.045670 -0.069640 -0.002058
0.033486 -0.077408 -0.021294
0.030619 -0.077351 -0.009181
0.011510 -0.086321 -0.033362
0.003712 -0.086294 -0.055677
0.023671 -0.082410 -0.038221
0.032019 -0.078711 -0.037373
0.000264 -0.086283 -0.057013
0.069530 -0.052506 -0.004001
0.057495 -0.062774 -0.014701
0.077715 -0.039503 -0.002234
0.078560 -0.041878 -0.024069
0.071673 -0.052920 -0.023974
0.028211 -0.080463 -0.048730
0.031907 -0.078798 -0.047337
0.059265 -0.064065 -0.046463
0.054853 -0.066850 -0.035005
0.085821 -0.029694 -0.031976
0.085057 -0.030071 -0.021086
0.089606 -0.022516 -0.027999
0.077198 -0.045999 -0.040504
0.092611 -0.016559 -0.022963
0.096394 0.009296 -0.004944
0.052145 -0.069090 -0.058285
0.071686 -0.049226 -0.090946
0.068372 -0.055592 -0.060472
0.078142 -0.043285 -0.053103
0.075941 -0.047599 -0.049022
0.092219 -0.018703 -0.052587
0.073425 -0.049512 -0.071109
0.048270 -0.068862 -0.087840
0.028112 -0.080149 -0.061092
0.053723 -0.066327 -0.076516
0.054400 -0.066635 -0.063790
0.011939 -0.085798 -0.062368
-0.000787 -0.083795 -0.084471
0.022317 -0.080167 -0.087180
0.026961 -0.077718 -0.091561
0.016329 -0.084351 -0.071446
-0.002004 -0.082170 -0.097131
0.008926 -0.076083 -0.118842
-0.012115 -0.078056 -0.111805
-0.003854 -0.070323 -0.139388
-0.001263 -0.054459 -0.176692
-0.002623 -0.052992 -0.179755
0.026904 -0.071055 -0.114062
0.041301 -0.060557 -0.127015
0.046756 -0.059849 -0.121814
0.039259 -0.070756 -0.098248
0.017123 -0.072163 -0.125275
0.024916 -0.065263 -0.135705
0.015355 -0.074984 -0.118795
0.062190 -0.053034 -0.114653
0.069477 -0.047193 -0.112128
0.057527 -0.060865 -0.097736
0.056147 -0.050710 -0.134428
0.060626 -0.049885 -0.129975
0.049728 -0.062665 -0.108929
0.043832 -0.053506 -0.145108
0.072600 -0.040933 -0.124860
0.079879 -0.030890 -0.109269
0.084298 -0.023292 -0.105618
0.077707 -0.029249 -0.131888
0.078123 -0.037359 -0.096879
0.077980 -0.039835 -0.085944
0.084553 -0.027068 -0.085628
0.065959 -0.037463 -0.172233
0.100064 0.017961 -0.050913
0.096502 -0.000283 -0.058489
0.096228 -0.004870 -0.051758
0.097738 0.006456 -0.036581
0.097487 0.001629 -0.046622
0.097033 -0.000743 -0.044797
0.085638 -0.014548 -0.131912
0.088639 -0.007535 -0.139072
0.076674 -0.029031 -0.140850
0.085214 -0.013239 -0.141683
0.085306 -0.010267 -0.163962
0.077135 -0.025350 -0.154655
0.094789 0.009542 -0.105390
0.096744 0.011781 -0.083102
0.095626 0.013464 -0.102844
0.093178 0.002887 -0.114590
0.093551 0.011301 -0.133231
0.092915 0.002895 -0.119425
0.096631 0.030177 -0.007155
0.096340 0.038806 -0.013716
0.097589 0.017254 -0.004703
0.088004 0.057305 0.022906
0.093465 0.053779 0.001138
0.092529 0.034108 0.012358
0.090066 0.038216 0.021250
0.099195 0.029565 -0.064628
0.099761 0.027798 -0.054751
0.099123 0.032985 -0.060623
0.096396 0.054358 -0.031740
0.097406 0.039829 -0.029705
0.096777 0.043218 -0.025041
0.079968 0.074729 0.033303
0.085440 0.063711 0.025351
0.078715 0.081834 0.029068
0.074461 0.084452 0.043472
0.076659 0.074844 0.052403
0.070973 0.088841 0.071610
0.089967 0.085599 -0.047687
0.092897 0.069506 -0.030227
0.093720 0.063379 -0.019387
0.086020 0.083120 -0.000669
0.086488 0.080827 0.000181
0.084379 0.076184 0.013668
0.087556 0.091107 -0.036887
0.090995 0.072938 -0.017291
0.087687 0.084322 -0.018923
0.055916 0.123015 0.074408
0.050197 0.134918 0.076197
0.067845 0.097911 0.072666
0.061096 0.122636 0.031760
0.055551 0.130882 0.038332
0.072806 0.100198 0.026702
0.051751 0.132755 0.069803
0.053399 0.130033 0.065155
0.059194 0.127891 0.029195
0.060432 0.129742 0.019511
0.060109 0.130366 0.019551
0.073803 0.114688 -0.010168
0.085406 0.096209 -0.032554
0.068014 0.125071 -0.004069
0.052557 0.129508 0.080890
0.051901 0.135316 0.101206
0.062828 0.113079 0.109807
0.057390 0.123116 0.103209
0.053567 0.132837 0.131360
0.053569 0.132896 0.130332
0.051792 0.137161 0.044049
0.043210 0.149959 0.061896
0.044796 0.148353 0.101820
0.046833 0.143054 0.090935
0.044237 0.146510 0.082516
0.048946 0.141880 0.128708
0.040475 0.157181 0.129460
0.042163 0.152247 0.144172
0.041530 0.152061 0.150126
0.044276 0.142610 0.162628
0.036777 0.155999 0.165342
0.026078 0.167662 0.179109
0.038067 0.160935 0.136313
0.023437 0.173538 0.171966
0.020628 0.176445 0.172760
0.006342 0.178990 0.209155
0.025097 0.176982 0.150872
0.036760 0.163137 0.123797
0.021603 0.183769 0.110375
0.033796 0.165421 0.089115
-0.000969 0.185783 0.197768
0.019775 0.180671 0.161477
0.021389 0.183812 0.136629
0.003529 0.199406 0.145174
0.009668 0.194993 0.142869
0.019429 0.186652 0.129095
0.017836 0.188059 0.116960
0.003579 0.200349 0.126596
0.005910 0.199000 0.106625
-0.003898 0.197976 0.149048
-0.007325 0.189447 0.171772
-0.005072 0.184702 0.192960
-0.009421 0.175369 0.207275
-0.003764 0.199725 0.136074
-0.004722 0.199032 0.129098
-0.011172 0.183349 0.178713
-0.011894 0.191052 0.150035
-0.019838 0.175585 0.175491
-0.027185 0.158726 0.193721
-0.030620 0.166101 0.159332
-0.019601 0.185261 0.133437
-0.038652 0.147007 0.175450
-0.046923 0.132192 0.171977
-0.040033 0.142149 0.180894
-0.030561 0.168153 0.149357
-0.032431 0.167403 0.137985
-0.044742 0.143792 0.153460
-0.036660 0.158637 0.151665
-0.049537 0.121563 0.180624
-0.057582 0.100917 0.184467
-0.061884 0.113442 0.147217
-0.064183 0.108081 0.149564
-0.055345 0.116873 0.167267
-0.070921 0.062402 0.183344
-0.062719 0.091294 0.180465
-0.065931 0.066452 0.190573
-0.071362 0.084318 0.161353
-0.070667 0.088863 0.157362
-0.066472 0.084672 0.176562
-0.073287 0.062595 0.177272
-0.077123 0.039214 0.180830
-0.072971 0.031326 0.189310
-0.061926 0.041792 0.203943
-0.085963 0.045468 0.154438
-0.085545 0.042143 0.158072
-0.085030 0.034703 0.164067
-0.082522 0.065250 0.129853
-0.082050 0.066028 0.135411
-0.083494 0.059827 0.147489
-0.068488 0.100919 0.120499
-0.062924 0.111794 0.141681
-0.072116 0.091872 0.123316
-0.074244 0.086514 0.127838
-0.053611 0.131997 0.114943
-0.063682 0.110514 0.124352
-0.050221 0.138329 0.123461
-0.050315 0.138103 0.124348
-0.069882 0.096862 0.116778
-0.079530 0.068555 0.113543
-0.037043 0.161466 0.122965
-0.039978 0.156509 0.124151
-0.027729 0.174700 0.127291
-0.067638 0.099325 0.105033
-0.064924 0.102379 0.094866
-0.073491 0.079722 0.102698
-0.047884 0.138273 0.081779
-0.055962 0.124044 0.101380
-0.056257 0.119737 0.084230
-0.022359 0.182150 0.124494
-0.039541 0.154939 0.093943
-0.022497 0.180917 0.101383
-0.030351 0.170450 0.103752
-0.065557 0.100074 0.079136
-0.062912 0.107507 0.066066
-0.055202 0.122273 0.077699
-0.012610 0.191522 0.099021
-0.015649 0.186297 0.083049
-0.024760 0.176820 0.091700
0.014213 0.189483 0.089179
-0.005253 0.192725 0.065119
0.018638 0.184826 0.087830
0.020794 0.183856 0.096961
0.013641 0.187266 0.069173
0.009663 0.190613 0.063165
0.036357 0.161495 0.045096
0.034689 0.163509 0.049958
0.025796 0.174292 0.058311
0.025961 0.174328 0.063042
0.049384 0.140956 0.046630
0.040032 0.156483 0.040976
0.053703 0.141637 0.016913
0.057557 0.134260 0.021646
0.056731 0.140815 0.005706
0.049869 0.150333 0.004620
0.030435 0.167913 0.030016
0.036380 0.161373 0.030752
0.062175 0.140068 -0.025395
0.061462 0.142448 -0.032471
0.071820 0.129709 -0.048108
0.075979 0.115449 -0.031411
0.069834 0.131406 -0.039556
0.031509 0.169735 0.008530
0.036183 0.166074 0.002339
0.019606 0.177767 0.026078
0.020083 0.178127 -0.006914
0.023849 0.176188 0.002717
0.004147 0.185978 0.027828
0.035043 0.169175 -0.020415
0.035559 0.169427 -0.024665
0.066364 0.137938 -0.043346
0.049204 0.160854 -0.042165
0.038013 0.168923 -0.036003
0.036137 0.170579 -0.037920
0.061237 0.146047 -0.058635
0.048737 0.162937 -0.066534
0.043831 0.167987 -0.073399
0.048422 0.162217 -0.047574
0.020036 0.179096 -0.020537
0.025373 0.179323 -0.044534
0.019400 0.181170 -0.037929
0.003048 0.184503 -0.007339
-0.000529 0.186818 -0.039186
-0.001260 0.186143 -0.030972
-0.016536 0.178853 0.020039
-0.005473 0.185797 0.028628
-0.019306 0.180550 0.063958
-0.016702 0.182921 0.059669
-0.009999 0.183323 -0.021501
-0.007773 0.183260 -0.008636
-0.020008 0.177605 -0.000494
-0.021740 0.178145 0.064223
-0.027165 0.171634 0.054287
-0.035127 0.161186 0.071797
-0.025252 0.173796 0.019535
-0.023099 0.175715 0.017315
-0.038823 0.158555 0.026894
-0.050099 0.138883 0.038888
-0.040386 0.154302 0.044770
-0.046417 0.141303 0.071561
-0.048896 0.136978 0.070769
-0.054107 0.128235 0.056990
-0.062037 0.111414 0.052792
-0.055751 0.125817 0.050905
-0.057020 0.139043 0.006067
-0.048276 0.146414 0.023122
-0.039874 0.156654 0.030008
-0.047284 0.152295 0.006178
-0.069011 0.103015 0.032944
-0.067474 0.103661 0.037645
-0.077049 0.097026 0.012945
-0.077456 0.101134 0.003904
-0.077005 0.103498 0.000610
-0.072929 0.111209 0.001508
-0.081174 0.084572 0.013038
-0.079909 0.089156 0.012606
-0.076385 0.093444 0.021208
-0.085216 0.097228 -0.042831
-0.077689 0.108319 -0.024401
-0.074217 0.114975 -0.022614
-0.086754 0.089093 -0.031614
-0.083405 0.091460 -0.007390
-0.087742 0.088178 -0.038149
-0.059532 0.142179 -0.023775
-0.066529 0.136410 -0.042580
-0.068060 0.134068 -0.041611
-0.068094 0.125884 -0.015406
-0.083054 0.102728 -0.046295
-0.035253 0.166766 -0.010909
-0.030973 0.171050 -0.015429
-0.055615 0.150173 -0.037571
-0.062373 0.141820 -0.041514
-0.032709 0.172022 -0.033273
-0.018504 0.180025 -0.026761
-0.050318 0.159833 -0.069699
-0.056438 0.150966 -0.050018
-0.056170 0.152003 -0.068060
-0.043140 0.168347 -0.078953
-0.042033 0.166396 -0.046727
-0.022963 0.180245 -0.047081
0.004021 0.187979 -0.050681
-0.025852 0.181325 -0.076597
-0.026922 0.178930 -0.057732
-0.010321 0.189995 -0.083266
0.007874 0.188941 -0.062070
-0.013286 0.191314 -0.109360
-0.015094 0.190099 -0.106172
-0.000250 0.192340 -0.087048
0.021018 0.182972 -0.059804
0.028331 0.179194 -0.065883
0.011835 0.191732 -0.102788
0.000653 0.196763 -0.128975
0.001069 0.197138 -0.132529
0.042978 0.169800 -0.086988
0.021750 0.189252 -0.127348
0.022059 0.186213 -0.097926
-0.008424 0.196178 -0.133242
-0.022784 0.186643 -0.112934
-0.023504 0.184287 -0.090771
-0.005692 0.197823 -0.152793
-0.003479 0.197711 -0.147644
-0.018546 0.191951 -0.149195
-0.011811 0.195813 -0.172621
-0.010539 0.196022 -0.155600
-0.035668 0.176401 -0.108817
-0.036365 0.176069 -0.113446
-0.035435 0.178690 -0.144790
-0.034756 0.179472 -0.147355
-0.045849 0.167096 -0.101204
-0.053463 0.156466 -0.093976
-0.046420 0.167873 -0.132906
-0.054772 0.153987 -0.071645
-0.057309 0.151040 -0.088194
-0.058552 0.148970 -0.073774
-0.030593 0.185636 -0.178973
-0.043980 0.173714 -0.186614
-0.070633 0.129462 -0.064070
-0.070249 0.129253 -0.093325
-0.068920 0.132732 -0.088508
-0.074623 0.120696 -0.058444
-0.078661 0.111699 -0.060250
-0.078076 0.112549 -0.063647
-0.060566 0.144124 -0.147487
-0.046428 0.167890 -0.136494
-0.053427 0.157192 -0.128330
-0.051461 0.162377 -0.170317
-0.051559 0.159970 -0.151893
-0.067822 0.131614 -0.118222
-0.064145 0.138268 -0.134504
-0.068477 0.130660 -0.113750
-0.071805 0.122924 -0.110687
-0.057503 0.151176 -0.163979
-0.059362 0.148893 -0.167536
-0.066939 0.140277 -0.185820
-0.070688 0.121801 -0.134303
-0.062482 0.140091 -0.149453
-0.076914 0.102793 -0.149175
-0.075067 0.110840 -0.132382
-0.071007 0.122104 -0.166599
-0.074871 0.109526 -0.163297
-0.064579 0.139512 -0.164052
-0.088217 0.082519 -0.085056
-0.085782 0.091713 -0.078860
-0.082472 0.096097 -0.110262
-0.082908 0.093928 -0.115950
-0.077888 0.100807 -0.146569
-0.080489 0.096827 -0.132906
-0.089787 0.070697 -0.145455
-0.088552 0.075319 -0.138072
-0.089029 0.074145 -0.133709
-0.092103 0.067623 -0.094237
-0.090621 0.077810 -0.066350
-0.092629 0.070895 -0.062652
-0.094022 0.058524 -0.017926
-0.092674 0.070069 -0.041261
-0.091548 0.075875 -0.046564
-0.096194 0.031746 -0.104735
-0.095270 0.056978 -0.072502
-0.096055 0.046814 -0.080226
-0.092869 0.054016 -0.123026
-0.092669 0.059307 -0.105343
-0.094425 0.045169 -0.105119
-0.095417 0.050057 -0.025511
-0.096390 0.040667 -0.028397
-0.096744 0.043240 -0.035720
-0.098989 0.022530 -0.061707
-0.097669 0.025626 -0.086399
-0.097886 0.035535 -0.065208
-0.084597 0.088006 -0.163374
-0.085698 0.081438 -0.156942
-0.084588 0.099166 -0.180984
-0.075672 0.112685 -0.172917
-0.079733 0.100718 -0.166330
-0.095125 0.046429 -0.141041
-0.094906 0.049880 -0.147230
-0.098442 0.038361 -0.149443
-0.096463 0.080779 -0.193798
-0.097803 0.069170 -0.180495
-0.095732 0.065790 -0.168496
-0.095300 0.063185 -0.164765
-0.097785 0.060363 -0.170642
-0.077551 0.126687 -0.214146
-0.088586 0.104642 -0.212077
-0.079900 0.121157 -0.209868
-0.106980 0.038548 -0.188796
-0.105544 0.047483 -0.188793
-0.103648 0.068093 -0.217348
-0.097161 0.083281 -0.201448
-0.106564 0.056458 -0.206569
-0.094823 0.019212 -0.129258
-0.097405 0.027366 -0.127439
-0.097462 0.026415 -0.140360
-0.106625 0.025830 -0.191844
-0.098200 0.019493 -0.167574
-0.101152 0.077162 -0.226313
-0.100241 0.077431 -0.218559
-0.081955 0.122181 -0.233058
-0.086564 0.112103 -0.228833
-0.108140 0.050886 -0.224159
-0.109361 0.040516 -0.210993
-0.100645 0.077216 -0.233937
-0.100824 0.063873 -0.249440
-0.103788 0.053388 -0.245835
-0.104711 0.045695 -0.245779
-0.072888 0.123681 -0.264241
-0.086713 0.107662 -0.243545
-0.092210 0.087669 -0.256437
-0.098301 0.071861 -0.250647
-0.092232 0.092887 -0.248349
-0.088449 0.088578 -0.268664
-0.071950 0.128779 -0.251359
-0.075698 0.110648 -0.272337
-0.070658 0.114487 -0.277179
-0.058403 0.123110 -0.285197
-0.054583 0.130030 -0.277543
-0.065401 0.141562 -0.206556
-0.073466 0.133766 -0.216672
-0.053570 0.145881 -0.246880
-0.061608 0.140310 -0.244168
-0.054479 0.157889 -0.200625
-0.067032 0.140395 -0.201312
-0.061611 0.147204 -0.204210
-0.037160 0.179407 -0.190095
-0.048508 0.166920 -0.196484
-0.039516 0.166981 -0.227716
-0.031832 0.172801 -0.231041
-0.018452 0.189717 -0.203732
-0.033519 0.154418 -0.260993
-0.040388 0.156819 -0.245739
-0.027595 0.175958 -0.232318
-0.004889 0.188426 -0.231705
-0.012765 0.187854 -0.220026
-0.011597 0.177476 -0.245965
-0.002745 0.192768 -0.217872
-0.042683 0.142150 -0.272442
-0.031467 0.153664 -0.265789
-0.045725 0.129997 -0.292713
-0.004236 0.168557 -0.261846
-0.014985 0.171557 -0.252258
-0.020393 0.149152 -0.288510
-0.033142 0.143392 -0.284641
-0.012389 0.164296 -0.263554
-0.021984 0.158581 -0.267229
-0.005973 0.148972 -0.295652
-0.000524 0.153652 -0.290073
0.013771 0.158181 -0.274699
0.010366 0.177027 -0.247734
0.012974 0.169823 -0.256066
0.004527 0.150474 -0.294264
0.020511 0.152511 -0.282279
0.006580 0.198218 -0.170901
0.017745 0.184244 -0.224697
0.005212 0.188171 -0.233438
0.023944 0.174967 -0.238720
0.013725 0.195482 -0.179278
0.015633 0.194688 -0.181398
0.015909 0.193112 -0.198509
0.021052 0.185976 -0.213142
0.013829 0.194292 -0.139160
0.029714 0.167400 -0.244817
0.034613 0.166553 -0.239016
0.029752 0.184895 -0.198649
0.035811 0.177953 -0.204046
0.035655 0.180913 -0.164442
0.030404 0.185901 -0.172041
0.032707 0.180749 -0.132199
0.045508 0.168394 -0.096913
0.038986 0.173937 -0.100488
0.048987 0.160812 -0.221986
0.044923 0.169194 -0.204266
0.031133 0.186279 -0.185796
0.045946 0.172260 -0.178534
0.049883 0.162898 -0.103315
0.051280 0.160943 -0.101887
0.049994 0.162540 -0.099060
0.053283 0.157416 -0.082089
0.060263 0.148035 -0.081867
0.051822 0.163008 -0.168409
0.049001 0.168038 -0.169197
0.055298 0.154788 -0.138020
0.056778 0.152889 -0.131638
0.065478 0.141165 -0.101286
0.072156 0.127449 -0.073040
0.074242 0.122032 -0.079712
0.077447 0.114043 -0.081526
0.069440 0.131394 -0.106976
0.073884 0.118683 -0.119282
0.068962 0.130699 -0.119800
0.074073 0.121714 -0.095291
0.080747 0.110089 -0.051583
0.080933 0.107665 -0.067984
0.079130 0.112681 -0.059050
0.064074 0.143536 -0.171534
0.063584 0.143143 -0.165162
0.059816 0.152930 -0.186074
0.067363 0.141018 -0.201699
0.058706 0.151910 -0.206255
0.061079 0.150317 -0.199036
0.076656 0.111015 -0.121847
0.072311 0.117799 -0.144724
0.080672 0.104086 -0.104061
0.069388 0.126139 -0.140805
0.070716 0.131240 -0.179973
0.073729 0.119079 -0.172029
0.069781 0.133801 -0.179660
0.087290 0.091494 -0.070494
0.089099 0.080452 -0.093873
0.092804 0.072130 -0.070403
0.092834 0.071356 -0.074393
0.095846 0.063546 -0.053412
0.094329 0.062105 -0.086338
0.096330 0.042258 -0.095471
0.095423 0.060103 -0.075902
0.091111 0.068871 -0.148826
0.090017 0.074718 -0.121798
0.091368 0.072014 -0.102052
0.092097 0.064046 -0.137732
0.094892 0.046297 -0.114504
0.092517 0.064938 -0.117113
0.092611 0.060821 -0.133294
0.089219 0.074387 -0.146645
0.080772 0.094951 -0.150458
0.083922 0.093203 -0.117752
0.098769 0.037906 -0.144146
0.093771 0.059468 -0.153219
0.096715 0.036712 -0.124631
0.096316 0.020721 -0.134878
0.094850 0.014999 -0.148425
0.087909 0.093072 -0.179883
0.084781 0.097724 -0.176259
0.090270 0.080430 -0.168339
0.077293 0.107907 -0.167247
0.086664 0.101987 -0.190371
0.086983 0.100491 -0.188869
0.103820 0.052631 -0.181303
0.102333 0.055114 -0.178482
0.095729 0.066466 -0.166227
0.093160 0.072739 -0.166502
0.095346 0.078327 -0.182985
0.098380 0.024293 -0.158717
0.098747 0.019900 -0.165881
0.101326 0.030070 -0.162546
0.108705 0.038366 -0.192565
0.103993 0.035166 -0.169334
0.091896 0.098400 -0.205562
0.082842 0.118056 -0.214428
0.078967 0.126536 -0.218535
0.073904 0.134161 -0.212393
0.069354 0.138565 -0.218637
0.076561 0.131601 -0.234755
0.104130 0.068491 -0.207015
0.101808 0.074495 -0.213043
0.108764 0.048592 -0.207395
0.093919 0.098236 -0.224650
0.091806 0.099347 -0.209305
0.095460 0.090481 -0.207332
0.094238 0.093597 -0.205810
0.062955 0.138459 -0.246987
0.051801 0.155129 -0.233011
0.064809 0.141558 -0.237663
0.035671 0.152819 -0.262228
0.049597 0.145862 -0.255064
0.076452 0.118545 -0.262837
0.078708 0.120114 -0.253868
0.067721 0.131028 -0.255338
0.042187 0.142205 -0.274644
0.025404 0.157026 -0.268732
0.066733 0.122918 -0.276577
0.053706 0.123987 -0.291054
0.093179 0.093535 -0.246917
0.091515 0.092379 -0.254609
0.081064 0.112289 -0.257214
0.066321 0.111754 -0.287049
0.073182 0.113454 -0.275390
0.102248 0.075481 -0.232705
0.106464 0.063436 -0.228694
0.097608 0.069077 -0.260039
0.095035 0.081413 -0.255871
0.110020 0.036276 -0.229138
0.108710 0.042797 -0.231798
0.110862 0.036361 -0.211864
0.087764 0.057740 -0.279833
0.089234 0.060212 -0.277078
0.104760 0.000239 -0.195090
0.099284 0.011722 -0.177047
0.106970 0.017548 -0.193552
0.099803 -0.004223 -0.185761
0.085190 -0.018356 -0.182643
0.087792 -0.016185 -0.183839
0.111333 0.026060 -0.228123
0.105218 0.034968 -0.252158
0.100425 0.032387 -0.264389
0.110838 0.004269 -0.219765
0.111758 0.017123 -0.220050
0.107869 0.017065 -0.244860
0.109755 0.012380 -0.234980
0.107798 0.002366 -0.243205
0.106403 -0.010125 -0.209489
0.107341 -0.012785 -0.235035
0.103964 -0.027343 -0.223182
0.100862 -0.022687 -0.203080
0.099681 -0.009605 -0.193220
0.102992 -0.031737 -0.226068
0.089331 -0.043853 -0.205771
0.104527 -0.023607 -0.242896
0.098858 -0.036708 -0.252285
0.100565 -0.043825 -0.237385
0.087148 -0.058431 -0.212609
0.070956 -0.036503 -0.191789
0.075537 -0.059463 -0.209598
0.043332 -0.049985 -0.161314
0.063446 -0.037615 -0.180025
0.049043 -0.045929 -0.169982
0.038849 -0.052795 -0.157283
0.028802 -0.055230 -0.172798
0.034053 -0.055354 -0.155994
0.041698 -0.047517 -0.204093
0.017484 -0.061446 -0.161468
0.014979 -0.050473 -0.184536
0.016193 -0.056579 -0.171717
0.034531 -0.044214 -0.195964
0.005439 -0.048037 -0.190102
0.009364 -0.051640 -0.182578
0.017451 -0.046125 -0.208141
-0.000261 -0.040126 -0.220628
-0.004638 -0.041472 -0.214274
0.024943 -0.049426 -0.225971
0.045083 -0.058492 -0.223704
0.028881 -0.054118 -0.238232
0.015793 -0.044177 -0.228110
-0.000353 -0.036632 -0.230604
0.003335 -0.030538 -0.244232
0.012480 -0.015381 -0.269826
0.008129 -0.026818 -0.255894
0.021747 -0.031978 -0.263350
0.021616 -0.043195 -0.248604
0.034410 -0.058034 -0.249168
0.051530 -0.063200 -0.224014
0.050340 -0.063322 -0.225454
0.066979 -0.068446 -0.217734
0.037325 -0.066079 -0.251673
0.043870 -0.074515 -0.241809
0.045138 -0.083163 -0.246879
0.044861 -0.096799 -0.262386
0.054615 -0.087254 -0.236943
0.046908 -0.093068 -0.249553
0.074116 -0.084184 -0.225088
0.057534 -0.101569 -0.242117
0.086616 -0.068499 -0.219305
0.043371 -0.103415 -0.269548
0.041547 -0.116807 -0.278618
0.086220 -0.077659 -0.226275
0.094243 -0.059187 -0.228382
0.041269 -0.127738 -0.275116
0.051934 -0.116235 -0.254823
0.042028 -0.139186 -0.273627
0.069022 -0.104340 -0.238892
0.054138 -0.122335 -0.257274
0.043634 -0.154364 -0.272028
0.045423 -0.160235 -0.266766
0.086176 -0.093606 -0.243433
0.092600 -0.070241 -0.241306
0.094259 -0.060458 -0.249117
0.097582 -0.039957 -0.253805
0.085146 -0.087261 -0.260321
0.089753 -0.062579 -0.259714
0.080691 -0.092232 -0.268018
0.078862 -0.106711 -0.270973
0.076842 -0.068763 -0.274946
0.072825 -0.114266 -0.286153
0.069458 -0.131615 -0.261582
0.057080 -0.151791 -0.259402
0.053119 -0.162051 -0.259696
0.063209 -0.162177 -0.259911
0.048353 -0.168641 -0.260773
0.063318 -0.166915 -0.259910
0.046458 -0.194365 -0.270098
0.046739 -0.193804 -0.263679
0.051997 -0.205891 -0.253392
0.067555 -0.191232 -0.259334
0.050253 -0.229757 -0.250987
0.047295 -0.242706 -0.255319
0.054785 -0.270548 -0.224287
0.056315 -0.248389 -0.239786
0.075765 -0.269091 -0.225921
0.069508 -0.207683 -0.256322
0.072321 -0.197116 -0.262442
0.074297 -0.153769 -0.267509
0.076178 -0.159429 -0.275116
0.079075 -0.218106 -0.271207
0.072422 -0.190570 -0.277815
0.074010 -0.149809 -0.284327
0.069171 -0.161786 -0.289513
0.074770 -0.127056 -0.286387
0.065288 -0.155101 -0.298245
0.072784 -0.136306 -0.294195
0.070119 -0.124152 -0.299054
0.054356 -0.119382 -0.303483
0.042602 -0.126361 -0.291760
0.043830 -0.117598 -0.289198
0.041372 -0.132402 -0.288547
0.043642 -0.152534 -0.281977
0.057330 -0.152007 -0.300007
0.067712 -0.191199 -0.283355
0.055392 -0.189536 -0.281183
0.058855 -0.184404 -0.286265
0.073060 -0.214157 -0.278368
0.055975 -0.209085 -0.276463
0.065666 -0.227172 -0.283897
0.083756 -0.237921 -0.261633
0.086695 -0.266801 -0.259713
0.077910 -0.272305 -0.266390
0.054913 -0.267359 -0.264606
0.061455 -0.254049 -0.269628
0.046423 -0.275490 0.157757
0.052600 -0.275937 0.147471
0.047648 -0.275059 0.134360
0.068282 -0.274294 0.154863
0.057168 -0.274853 0.126840
0.072354 -0.274423 0.137954
-0.037980 -0.260888 0.138607
-0.038934 -0.256605 0.136528
-0.044998 -0.267725 0.119455
-0.039913 -0.242870 0.133366
-0.064929 -0.269689 0.118831
-0.076283 -0.267270 0.146711
-0.076380 -0.271702 0.152189
-0.069289 -0.258014 0.146196
-0.063928 -0.263196 0.158309
-0.055826 -0.267278 0.163888
-0.051170 -0.268493 0.165079
-0.071106 -0.254928 0.136257
-0.041160 -0.258415 0.146124
-0.049917 -0.252618 0.149437
-0.042656 -0.202791 0.133849
-0.055232 -0.213297 0.135189
-0.040569 -0.144725 0.136382
-0.038691 -0.137482 0.137715
-0.043215 -0.131872 0.142042
-0.061050 -0.150258 0.136778
-0.040027 -0.112008 0.143319
-0.034923 -0.094881 0.143529
-0.057441 -0.134661 0.141369
-0.055002 -0.129892 0.143645
-0.064992 -0.150966 0.131095
-0.066072 -0.146949 0.129685
-0.066802 -0.185374 0.123438
-0.060382 -0.189174 0.132574
-0.065293 -0.174186 0.111513
-0.056688 -0.210459 0.106896
-0.067563 -0.223711 0.114299
-0.068510 -0.228237 0.113299
-0.059921 -0.220182 0.106629
-0.056188 -0.201009 0.106243
-0.054409 -0.191309 0.106593
-0.058687 -0.154345 0.103648
-0.052094 -0.209595 0.108830
-0.069517 -0.136055 0.126999
-0.063389 -0.143089 0.105974
-0.069753 -0.127032 0.113565
-0.061622 -0.113712 0.101883
-0.066291 -0.125630 0.106541
-0.066226 -0.131015 0.134776
-0.072484 -0.124273 0.123584
-0.067561 -0.113190 0.141191
-0.065671 -0.107942 0.144402
-0.057232 -0.076533 0.157941
-0.053194 -0.086492 0.156065
-0.076424 -0.089532 0.135390
-0.072395 -0.066313 0.151958
-0.045110 -0.073619 0.160340
-0.029362 -0.078334 0.152795
-0.005225 -0.091884 0.169500
-0.023780 -0.076418 0.155987
-0.026389 -0.074950 0.165313
-0.014526 -0.081227 0.179662
-0.019176 -0.076502 0.180083
-0.006009 -0.085536 0.186108
-0.011126 -0.076492 0.191934
-0.040840 -0.062597 0.174285
-0.013240 -0.050349 0.213990
-0.011164 -0.040967 0.222838
-0.017214 -0.046132 0.213536
-0.038773 -0.047534 0.191738
-0.032225 -0.039031 0.205474
-0.052647 -0.048246 0.180516
-0.063019 -0.066055 0.158966
-0.049621 -0.036363 0.190996
-0.044662 -0.040408 0.191994
-0.049897 -0.045030 0.184084
-0.058273 -0.019536 0.196240
-0.051707 -0.018024 0.202583
-0.064992 0.001914 0.196499
-0.072060 0.015486 0.189071
-0.071212 0.025084 0.192530
-0.064320 0.019858 0.201680
-0.081828 -0.039829 0.165184
-0.075483 -0.048344 0.164194
-0.075689 -0.016940 0.180287
-0.079410 0.006463 0.178487
-0.085185 0.004397 0.171234
-0.083784 0.007923 0.174269
-0.086783 -0.029877 0.161029
-0.089553 0.018051 0.156603
-0.090883 -0.003288 0.152221
-0.088935 -0.005662 0.160790
-0.080426 -0.057964 0.149343
-0.090866 -0.029849 0.144147
-0.085429 -0.060376 0.134712
-0.081559 -0.076846 0.132333
-0.077932 -0.071547 0.143969
-0.084371 -0.069661 0.128786
-0.090625 -0.044532 0.130403
-0.078759 -0.086337 0.119032
-0.093672 -0.021243 0.132244
-0.071427 -0.078034 0.102763
-0.066478 -0.094008 0.101247
-0.091973 -0.038962 0.130117
-0.090684 -0.040377 0.122717
-0.091177 -0.027270 0.113931
-0.073107 -0.052417 0.094281
-0.083772 -0.041687 0.099092
-0.053350 -0.084943 0.101892
-0.073283 -0.022490 0.087886
-0.085327 -0.024282 0.098177
-0.061186 -0.054329 0.092212
-0.062837 -0.066225 0.096168
-0.088675 -0.001794 0.099765
-0.075915 -0.012384 0.089500
-0.093070 -0.000520 0.125508
-0.094004 -0.003193 0.132119
-0.087840 0.027916 0.109662
-0.091334 0.020048 0.148464
-0.091424 0.021110 0.135833
-0.085430 0.053473 0.132499
-0.089403 0.034049 0.150438
-0.083515 0.056923 0.115962
-0.086711 0.042030 0.114010
-0.082875 0.047823 0.102264
-0.082459 0.044399 0.099451
-0.079088 0.009042 0.084497
-0.075991 -0.002500 0.079722
-0.082615 0.031672 0.093993
-0.082757 0.030187 0.082988
-0.081367 0.013739 0.061705
-0.081899 0.011474 0.056452
-0.066591 -0.028390 0.078960
-0.081275 0.041743 0.071507
-0.080078 0.051144 0.078914
-0.071420 0.081997 0.088916
-0.077269 0.066896 0.070748
-0.076810 0.067676 0.075360
-0.072347 0.088780 0.043030
-0.070729 0.089088 0.062818
-0.071041 0.085014 0.074634
-0.081196 0.074734 0.024756
-0.081420 0.067892 0.032875
-0.084253 0.058991 0.032982
-0.089306 0.034686 0.022464
-0.084185 0.024226 0.053051
-0.090526 0.032340 0.017972
-0.085068 0.045007 0.036819
-0.093072 0.045704 0.002201
-0.085038 0.053699 0.033188
-0.093667 0.039765 0.001879
-0.079996 -0.008962 0.049463
-0.077832 -0.012550 0.055886
-0.080088 -0.008155 0.049669
-0.083018 0.003753 0.046129
-0.098139 0.028542 -0.038457
-0.095981 0.037645 -0.019202
-0.096302 0.023654 -0.006423
-0.091803 -0.000732 0.005447
-0.090526 0.003362 0.014225
-0.083881 -0.011376 0.030894
-0.097590 0.007289 -0.048283
-0.095461 -0.000476 -0.029127
-0.099066 0.017631 -0.045947
-0.090645 -0.013000 -0.000865
-0.092824 -0.003079 -0.002658
-0.091652 -0.011725 -0.009797
-0.095043 -0.004631 -0.056983
-0.094604 -0.007110 -0.057392
-0.095579 -0.001104 -0.057638
-0.096518 0.012750 -0.076623
-0.094744 0.012487 -0.101019
-0.095959 0.017521 -0.095752
-0.094117 0.012547 -0.111137
-0.093604 0.012296 -0.119751
-0.095550 0.020403 -0.108678
-0.074857 -0.027778 0.035781
-0.074096 -0.021184 0.052817
-0.079366 -0.026364 0.022242
-0.074639 -0.030697 0.030282
-0.062414 -0.037530 0.071363
-0.088251 -0.023848 -0.032569
-0.079176 -0.040220 -0.032934
-0.086208 -0.027583 -0.033192
-0.079510 -0.029901 0.013807
-0.064666 -0.047544 0.029826
-0.076959 -0.037639 0.005870
-0.072265 -0.045863 0.003782
-0.074384 -0.047640 -0.026509
-0.073148 -0.051407 -0.036939
-0.082562 -0.029889 -0.082686
-0.082365 -0.027569 -0.096155
-0.086664 -0.023710 -0.073577
-0.085874 -0.022282 -0.088366
-0.073005 -0.050724 -0.053740
-0.083007 -0.032387 -0.061073
-0.080389 -0.038537 -0.047178
-0.077302 -0.040925 -0.073922
-0.074739 -0.041851 -0.098933
-0.082328 -0.023738 -0.112261
-0.081387 -0.022428 -0.124348
-0.079043 -0.025862 -0.128576
-0.074278 -0.029531 -0.151634
-0.080106 -0.019711 -0.147767
-0.085215 -0.015021 -0.126003
-0.085428 -0.009173 -0.151615
-0.063811 -0.056766 -0.075840
-0.071605 -0.050979 -0.071153
-0.067329 -0.043655 -0.133255
-0.070814 -0.044554 -0.115357
-0.054960 -0.064146 -0.080498
-0.061144 -0.058205 -0.085326
-0.061077 -0.060334 -0.022377
-0.069770 -0.055094 -0.033533
-0.065942 -0.054325 -0.001937
-0.069321 -0.056230 -0.042044
-0.050177 -0.070152 -0.056037
-0.037826 -0.074870 -0.067297
-0.049530 -0.069234 -0.071598
-0.035629 -0.076732 -0.048885
-0.024455 -0.080398 -0.072257
-0.022430 -0.081839 -0.066678
-0.018177 -0.084552 -0.048256
-0.018786 -0.084248 -0.044340
-0.040294 -0.064446 -0.115206
-0.033759 -0.068365 -0.111944
-0.024217 -0.076082 -0.101014
-0.030767 -0.064326 -0.128481
-0.053954 -0.057261 -0.117104
-0.049657 -0.058165 -0.121047
-0.053982 -0.052256 -0.131869
-0.013289 -0.068185 -0.142970
-0.023359 -0.068388 -0.126575
-0.024715 -0.070109 -0.118818
-0.027306 -0.079184 -0.015398
-0.034101 -0.076044 -0.015201
-0.028308 -0.078946 -0.017353
-0.055714 -0.060757 0.006240
-0.049964 -0.065153 0.004573
-0.064540 -0.051413 0.017539
-0.059171 -0.051348 0.032668
-0.013901 -0.084476 -0.009315
-0.032537 -0.073517 0.012137
-0.040366 -0.062369 0.050944
-0.033621 -0.068043 0.037995
-0.027408 -0.075097 0.016919
-0.051002 -0.050238 0.071258
-0.058825 -0.044329 0.064980
-0.033751 -0.065663 0.049286
-0.022004 -0.069963 0.052938
-0.040366 -0.058582 0.076663
-0.026865 -0.066584 0.063709
-0.021688 -0.068919 0.062924
-0.025083 -0.065969 0.077774
-0.033059 -0.064033 0.098755
-0.036447 -0.067281 0.109260
-0.019719 -0.070383 0.101935
-0.016949 -0.072815 0.108623
-0.015033 -0.081831 0.148789
-0.016903 -0.076578 0.131244
-0.030677 -0.083049 0.142696
-0.043543 -0.092272 0.108457
-0.053781 -0.101775 0.102714
-0.055393 -0.113140 0.102148
-0.034098 -0.094696 0.133407
-0.034406 -0.093849 0.122831
-0.035426 -0.120353 0.135935
-0.039900 -0.119230 0.114596
-0.048339 -0.134499 0.106682
-0.034468 -0.119891 0.125783
-0.036382 -0.121326 0.120104
-0.036894 -0.141035 0.131323
-0.040549 -0.148298 0.111866
-0.037781 -0.151452 0.128503
-0.036013 -0.154848 0.120158
-0.045293 -0.174055 0.110219
-0.044923 -0.189469 0.113093
-0.038184 -0.196567 0.123243
-0.044686 -0.204734 0.114555
-0.039689 -0.224842 0.127840
-0.046927 -0.246945 0.111563
-0.051065 -0.228438 0.102210
-0.056873 -0.235551 0.100989
-0.064139 -0.239890 0.102794
-0.065070 -0.247418 0.108059
-0.069232 -0.243613 0.114170
-0.071277 -0.256522 0.121967
-0.063786 -0.273436 0.166069
-0.038388 -0.275300 0.148542
-0.069391 -0.274334 0.151552
-0.061597 -0.274967 0.132776
-0.015884 -0.031674 -0.256501
-0.026635 -0.048205 -0.251576
-0.023926 -0.048154 -0.243450
-0.017394 -0.043700 -0.236899
-0.039640 -0.072703 -0.262535
-0.019858 -0.045947 -0.221468
-0.031160 -0.051219 -0.218570
-0.029873 -0.050828 -0.216462
-0.021128 -0.045369 -0.201725
-0.017966 -0.060811 -0.162660
-0.023348 -0.044900 -0.195239
-0.012394 -0.058499 -0.168008
-0.031080 -0.054689 -0.166619
-0.025318 -0.059351 -0.155182
-0.041960 -0.059156 -0.229557
-0.053652 -0.040650 -0.186921
-0.070627 -0.033259 -0.183901
-0.056792 -0.044734 -0.197680
-0.070770 -0.035906 -0.159607
-0.069264 -0.036251 -0.163600
-0.079982 -0.019284 -0.167725
-0.083692 -0.011279 -0.158522
-0.063182 -0.053271 -0.208116
-0.073999 -0.034309 -0.190328
-0.053452 -0.065755 -0.222682
-0.038028 -0.063766 -0.238866
-0.072492 -0.061162 -0.211265
-0.061449 -0.077556 -0.224973
-0.076224 -0.037029 -0.194259
-0.079478 -0.050410 -0.203548
-0.094176 -0.004153 -0.176043
-0.078033 -0.026662 -0.185382
-0.095583 -0.012362 -0.192281
-0.100216 0.012189 -0.181179
-0.097202 0.010711 -0.174425
-0.104537 0.001442 -0.198499
-0.109399 0.005442 -0.217098
-0.103382 -0.006272 -0.197412
-0.085799 -0.059652 -0.212825
-0.089541 -0.034536 -0.200597
-0.104894 -0.019052 -0.217753
-0.098451 -0.040458 -0.221360
-0.109706 -0.000735 -0.221229
-0.108105 0.001621 -0.234315
-0.107736 -0.008292 -0.230247
-0.106789 0.007670 -0.244788
-0.111397 0.025981 -0.223908
-0.105600 0.032445 -0.247612
-0.100530 -0.027660 -0.250838
-0.099259 0.048389 -0.263059
-0.098379 0.033694 -0.266121
-0.097804 0.058936 -0.263480
-0.094824 0.064336 -0.266597
-0.101577 0.006670 -0.260121
-0.097834 -0.025952 -0.261311
-0.097316 0.023819 -0.268056
-0.099640 0.014725 -0.264147
-0.073923 0.077527 -0.291703
-0.080576 0.057345 -0.288330
-0.085004 0.082552 -0.276056
-0.067810 0.094089 -0.292924
-0.069258 0.095994 -0.290238
-0.066970 0.107294 -0.287959
-0.079154 0.023448 -0.289937
-0.083671 0.030453 -0.286925
-0.076694 0.052981 -0.293471
-0.069666 0.039004 -0.298393
-0.080862 0.005325 -0.285497
-0.076220 0.015375 -0.290172
-0.054115 0.100403 -0.305009
-0.046526 0.101126 -0.311054
-0.050685 0.116363 -0.301571
-0.055715 0.052594 -0.308762
-0.042161 0.083308 -0.315724
-0.034224 0.124551 -0.307649
-0.029933 0.137362 -0.296687
-0.020274 0.092425 -0.320471
-0.035092 0.091577 -0.316847
-0.029355 0.110522 -0.318735
-0.015557 0.134791 -0.310481
0.004693 0.122718 -0.323478
0.023193 0.129965 -0.310728
0.026200 0.138222 -0.298934
0.041800 0.133098 -0.293480
0.017200 0.094675 -0.321339
0.042335 0.112045 -0.310705
0.031824 0.087958 -0.318184
0.058124 0.096049 -0.304000
0.057294 0.077472 -0.308737
0.059715 0.111418 -0.296249
0.066979 0.099079 -0.292758
0.077135 0.086099 -0.285928
0.079581 0.079269 -0.285024
0.081424 0.065905 -0.286108
0.083342 0.060226 -0.285100
0.031645 0.070837 -0.316047
0.032205 0.078149 -0.318011
0.013166 0.072126 -0.315019
0.056174 0.043325 -0.308830
0.057775 0.051920 -0.308003
0.069164 0.038898 -0.299420
0.076133 0.040020 -0.294133
0.029800 0.055635 -0.311773
0.043658 0.067083 -0.315686
0.080100 0.026714 -0.290096
0.095511 0.021419 -0.271520
0.086791 0.030370 -0.284080
0.015444 0.049692 -0.307966
0.001745 0.005712 -0.283065
0.013497 0.025134 -0.296875
0.019356 0.046822 -0.308173
0.031720 0.045930 -0.309050
0.022700 -0.000181 -0.286400
0.011836 0.003515 -0.283087
0.024655 0.006073 -0.291947
0.013020 -0.010189 -0.273958
0.040821 0.025537 -0.304212
0.047750 0.009531 -0.298582
0.061240 0.029014 -0.303958
0.037313 -0.022509 -0.284595
0.081567 -0.001113 -0.284473
0.082370 0.005441 -0.285172
0.094797 0.002017 -0.270823
0.095870 0.006909 -0.269790
0.100635 0.006692 -0.262816
0.095922 -0.013689 -0.266809
0.056100 -0.010595 -0.291779
0.070220 -0.004460 -0.289770
0.036630 -0.011322 -0.289161
0.086359 -0.026847 -0.275965
0.084289 -0.015312 -0.280876
0.061137 -0.023588 -0.289807
0.073258 -0.046005 -0.283691
0.063854 -0.064562 -0.284983
0.063847 -0.067461 -0.284958
0.046632 -0.050876 -0.282291
0.031185 -0.038830 -0.270665
0.047187 -0.060404 -0.280774
0.039945 -0.063711 -0.268444
0.046365 -0.084271 -0.279463
-0.004148 0.079556 -0.315899
-0.010207 0.070798 -0.314004
-0.028183 0.065982 -0.314609
-0.029963 0.061635 -0.313566
-0.046189 0.041373 -0.308198
-0.037379 0.046478 -0.309378
-0.043399 0.040639 -0.307912
-0.035238 0.041936 -0.308158
-0.017622 0.026230 -0.299445
-0.057284 0.027234 -0.304468
-0.012656 0.018980 -0.294159
-0.038458 0.011308 -0.298360
-0.029589 0.000886 -0.291419
-0.016941 0.002165 -0.285392
-0.015879 -0.017496 -0.271200
-0.055491 0.003669 -0.296958
-0.060851 0.003098 -0.295540
-0.029754 -0.012645 -0.283743
-0.027314 -0.023140 -0.275792
-0.046419 -0.008833 -0.291147
-0.079688 -0.025972 -0.281796
-0.067143 -0.025326 -0.287078
-0.038070 -0.029767 -0.282983
-0.032498 -0.048325 -0.265164
-0.046505 -0.031734 -0.286353
-0.041414 -0.037247 -0.283109
-0.036163 -0.051227 -0.269333
-0.047897 -0.059427 -0.282154
-0.062517 -0.054021 -0.285682
-0.061010 -0.054670 -0.285904
-0.059387 -0.070263 -0.285753
-0.052945 -0.084381 -0.286467
-0.042194 -0.107917 -0.279220
-0.045894 -0.110580 -0.293131
-0.052543 -0.091943 -0.288781
-0.050953 -0.111240 -0.297792
-0.052694 -0.118265 -0.302391
-0.043655 -0.138219 -0.293830
-0.046371 -0.147771 -0.291983
-0.051013 -0.125232 -0.303602
-0.053062 -0.153198 -0.296466
-0.046646 -0.184137 -0.275029
-0.051442 -0.182440 -0.280740
-0.047493 -0.210671 -0.268429
-0.057559 -0.162700 -0.294203
-0.055173 -0.180063 -0.285217
-0.056900 -0.218448 -0.277469
-0.052796 -0.236023 -0.270392
-0.065786 -0.238979 -0.279688
-0.071867 -0.221808 -0.279077
-0.066039 -0.211973 -0.282927
-0.062977 -0.192055 -0.286059
-0.079900 -0.215914 -0.268707
-0.073376 -0.216544 -0.277520
-0.069538 -0.170952 -0.284416
-0.067463 -0.184756 -0.284231
-0.074786 -0.161896 -0.278545
-0.065097 -0.115149 -0.298962
-0.067024 -0.107571 -0.291741
-0.063213 -0.092147 -0.289027
-0.073496 -0.127167 -0.289977
-0.076418 -0.138421 -0.278621
-0.072070 -0.111788 -0.285380
-0.073000 -0.118002 -0.283302
-0.073746 -0.080164 -0.277802
-0.081535 -0.103340 -0.264241
-0.077991 -0.074399 -0.272407
-0.072416 -0.064164 -0.279098
-0.070871 -0.057707 -0.282242
-0.089149 -0.043559 -0.266273
-0.086257 -0.067257 -0.261627
-0.085515 -0.088275 -0.258119
-0.098136 -0.031436 -0.256330
-0.097112 -0.047089 -0.227099
-0.093261 -0.063273 -0.234406
-0.086681 -0.086567 -0.254500
-0.088055 -0.082058 -0.247796
-0.087783 -0.081256 -0.232972
-0.074438 -0.102914 -0.238848
-0.087348 -0.065943 -0.219242
-0.065184 -0.085045 -0.228333
-0.072190 -0.088639 -0.228147
-0.069014 -0.097406 -0.234711
-0.067028 -0.125388 -0.257707
-0.048928 -0.095561 -0.247074
-0.042787 -0.082245 -0.255767
-0.058168 -0.112969 -0.248736
-0.048443 -0.111459 -0.255995
-0.068153 -0.112582 -0.243713
-0.042084 -0.117436 -0.270310
-0.047314 -0.129324 -0.263211
-0.054544 -0.133705 -0.260405
-0.043537 -0.152959 -0.269672
-0.054320 -0.141899 -0.260770
-0.074569 -0.149693 -0.270913
-0.068658 -0.161591 -0.262637
-0.056332 -0.155989 -0.258943
-0.043781 -0.166368 -0.271968
-0.051161 -0.178380 -0.258205
-0.045501 -0.183606 -0.261206
-0.045432 -0.188727 -0.265071
-0.064751 -0.190204 -0.258777
-0.054638 -0.224048 -0.248904
-0.047635 -0.229924 -0.262681
-0.048464 -0.255793 -0.260240
-0.053817 -0.236820 -0.244942
-0.067423 -0.232257 -0.247895
-0.069217 -0.238411 -0.245137
-0.082793 -0.255801 -0.258036
-0.079471 -0.259326 -0.263827
-0.054244 -0.248139 -0.268933
-0.058457 -0.263097 -0.265858
-0.066040 -0.264702 -0.265029
-0.078765 -0.264789 -0.265594
-0.087335 -0.261039 -0.244837
-0.081652 -0.264860 -0.230759
-0.076964 -0.268340 -0.226226
-0.057349 -0.273299 -0.222092
-0.045947 -0.267942 -0.256377
0.008286 0.011585 0.348388
0.015305 0.016247 0.336938
0.003454 0.010467 0.355259
0.026785 0.026697 0.328252
0.032448 0.035390 0.343377
0.020674 0.021083 0.349784
0.028438 0.030029 0.355967
0.020827 0.022046 0.360282
0.009571 0.017783 0.377679
0.018439 0.023106 0.372499
0.029274 0.037234 0.370892
0.018824 0.032316 0.386478
0.004094 0.024281 0.401101
0.006391 0.029388 0.415769
0.002834 0.030557 0.430301
0.014577 0.029644 0.448336
0.024708 0.055509 0.453048
0.029672 0.050763 0.434500
0.027321 0.059242 0.434671
0.024902 0.065116 0.442361
0.024942 0.066182 0.433933
0.023886 0.043935 0.419265
0.016150 0.036173 0.413976
0.020816 0.039716 0.412700
0.024784 0.041875 0.390808
0.024477 0.044387 0.401351
0.024834 0.041103 0.388250
0.026619 0.053804 0.419082
0.028215 0.054119 0.396270
0.032775 0.047745 0.375037
0.028437 0.048386 0.387846
0.026327 0.071191 0.409255
0.025390 0.076497 0.409248
0.022824 0.078102 0.426138
0.018154 0.092347 0.421690
0.014668 0.098114 0.424042
0.010092 0.093933 0.437194
0.011561 0.100535 0.426951
0.007116 0.110375 0.419751
0.022280 0.097566 0.402111
0.022978 0.091183 0.406040
0.027226 0.089666 0.396862
0.026035 0.105816 0.391974
0.037818 0.048244 0.357858
0.033755 0.041009 0.360490
0.042848 0.063129 0.334453
0.038280 0.048379 0.323219
0.046102 0.079232 0.341259
0.046124 0.086790 0.350036
0.043242 0.092187 0.363712
0.068764 0.084946 0.318433
0.064429 0.101505 0.320532
0.078409 0.095918 0.311506
0.098508 0.090407 0.304292
0.092964 0.107684 0.312456
0.078183 0.114189 0.324537
0.071643 0.106763 0.317234
0.063712 0.112420 0.329646
0.053095 0.119562 0.342581
0.049870 0.124965 0.349886
0.055077 0.124029 0.343349
0.058348 0.130756 0.348300
0.045722 0.119649 0.357135
0.048569 0.133046 0.355197
0.044168 0.097404 0.363240
0.026575 0.116041 0.388135
0.030957 0.119332 0.384798
0.016935 0.110646 0.398094
0.016375 0.114493 0.395441
0.004730 0.129618 0.394953
0.002239 0.121056 0.402159
0.005738 0.132949 0.392039
-0.004553 0.100007 0.434731
-0.002633 0.085075 0.453137
-0.009425 0.091958 0.439690
-0.008819 0.090744 0.441985
-0.012225 0.091406 0.436222
-0.020341 0.079049 0.430209
-0.018081 0.076865 0.442081
-0.022227 0.074081 0.431764
