-0.015718 -0.035303 0.217764
-0.003316 -0.047084 0.180228
-0.013708 -0.044654 0.190480
-0.011324 -0.051715 0.166574
-0.021265 -0.041838 0.192421
-0.017629 -0.054899 0.154170
-0.029312 -0.048002 0.181999
-0.022012 -0.031354 0.211414
-0.024295 -0.037510 0.200457
-0.026986 -0.005401 0.259876
-0.029285 -0.015867 0.236118
-0.034384 -0.000580 0.233685
-0.019503 0.026318 0.271404
-0.022698 0.014124 0.271429
-0.023129 0.019029 0.263478
-0.031660 0.011470 0.243211
-0.022317 0.022964 0.262116
-0.030148 0.011932 0.247704
-0.008585 0.055249 0.264981
-0.019443 0.037411 0.256445
-0.025129 0.030239 0.243592
-0.010380 0.053443 0.260485
-0.040197 0.009434 0.222666
-0.045482 0.011615 0.206212
-0.031970 0.024673 0.229171
-0.032491 0.019478 0.231836
-0.035815 0.017296 0.226791
-0.009471 0.058574 0.255129
-0.025739 0.042314 0.229061
-0.024966 0.043111 0.230033
-0.020873 0.055376 0.230695
-0.007437 0.066935 0.232979
-0.006206 0.075157 0.223429
-0.019267 0.062028 0.229421
-0.024004 0.071912 0.212495
-0.035295 0.073455 0.187093
-0.017942 0.084271 0.204989
-0.037774 0.078538 0.175421
-0.026302 0.087383 0.190876
-0.004095 0.086062 0.212538
-0.000864 0.087871 0.212409
-0.016008 0.082027 0.209823
-0.041499 0.065282 0.179975
-0.043616 0.060436 0.179427
-0.054862 0.038680 0.172508
-0.048115 0.030330 0.193758
-0.041193 0.049664 0.196322
-0.037393 0.086210 0.164980
-0.040071 0.083191 0.161983
-0.027917 0.100806 0.169699
-0.041699 0.070513 0.174123
-0.047629 0.070165 0.156372
-0.053187 0.057861 0.154479
-0.051397 0.053467 0.165376
-0.026158 0.105703 0.167264
-0.040129 0.098627 0.138540
-0.034758 0.110939 0.135029
-0.023562 0.115750 0.159994
-0.023471 0.116222 0.159577
-0.061891 0.042820 0.123014
-0.060075 0.033686 0.154627
-0.053847 0.064967 0.139034
-0.059496 0.044365 0.137786
-0.052169 0.070212 0.141142
-0.006808 0.116908 0.183779
-0.000009 0.092997 0.208483
0.005312 0.113073 0.188426
-0.001202 0.139046 0.158022
-0.013069 0.123274 0.172429
0.000919 0.137796 0.160866
-0.023426 0.126708 0.141183
-0.024016 0.128179 0.136579
-0.016468 0.119739 0.174928
-0.015873 0.132166 0.151822
-0.056367 0.100777 0.090051
-0.038502 0.111557 0.123669
-0.043033 0.103372 0.123287
-0.035875 0.109823 0.133570
-0.055806 0.078397 0.116820
-0.061682 0.044248 0.122550
-0.065730 0.076932 0.086935
-0.064543 0.057917 0.104017
-0.062361 0.077631 0.096938
-0.060877 0.060698 0.113480
-0.024224 0.137866 0.124379
-0.031466 0.134877 0.115860
-0.049025 0.115909 0.096123
-0.059258 0.100685 0.083809
-0.053686 0.109518 0.090175
-0.043687 0.133435 0.096562
-0.023575 0.142669 0.119380
-0.056116 0.119408 0.074054
-0.052363 0.133958 0.063053
-0.057810 0.122722 0.057121
-0.057128 0.117005 0.073653
-0.050678 0.128813 0.083994
-0.016037 0.160234 0.120695
-0.021152 0.153541 0.112532
-0.011914 0.143874 0.135730
-0.041978 0.141995 0.088935
-0.047938 0.142814 0.059696
-0.043090 0.149969 0.057143
-0.046199 0.138331 0.087516
-0.018780 0.170049 0.106704
-0.026769 0.161872 0.090214
-0.030912 0.159295 0.080265
-0.025460 0.164009 0.092230
-0.042141 0.152835 0.045184
-0.053383 0.142555 0.029973
-0.021646 0.172724 0.059244
-0.030834 0.158954 0.048249
-0.020798 0.163119 0.042706
-0.020036 0.164037 0.042389
-0.043718 0.150982 0.014052
-0.014425 0.169151 0.044823
-0.014339 0.163719 0.029472
-0.006545 0.165782 0.033878
-0.026279 0.160128 0.018745
-0.010991 0.164691 0.023940
-0.001503 0.167796 -0.003481
0.008749 0.165805 0.036592
0.003804 0.167389 0.000702
-0.004301 0.168329 -0.011727
0.010831 0.165378 -0.003260
0.004988 0.168246 -0.010875
0.025720 0.161240 0.026532
0.024349 0.160999 0.009189
0.026670 0.159733 0.000971
0.034440 0.157226 0.018710
0.008217 0.169082 -0.027248
0.033345 0.156992 0.002341
0.042158 0.153659 -0.010390
0.029711 0.159151 -0.025016
0.017900 0.163721 -0.012681
0.052961 0.142074 -0.032112
0.055555 0.140421 -0.001346
0.055318 0.140207 -0.011944
0.054149 0.142483 0.018917
0.034678 0.158386 0.035961
0.040584 0.155198 0.044097
0.045589 0.151163 0.032209
0.024366 0.168917 0.056821
0.017030 0.174704 0.051220
0.043418 0.147956 0.066598
0.051873 0.138463 0.058501
0.040138 0.153685 0.061956
0.025633 0.176765 0.075353
-0.007708 0.196130 0.066726
-0.018116 0.188190 0.075079
0.009419 0.183044 0.056149
0.010835 0.201331 0.072079
0.016753 0.184502 0.062524
-0.020680 0.177305 0.094423
-0.003197 0.223587 0.079816
-0.009162 0.207358 0.078858
0.003007 0.216012 0.077110
-0.007394 0.225205 0.088161
-0.001687 0.236140 0.092115
-0.007943 0.205206 0.107239
-0.012622 0.176131 0.118010
-0.007979 0.192761 0.116235
-0.006574 0.171195 0.127059
-0.003170 0.223111 0.105379
-0.004206 0.205225 0.114714
-0.002834 0.229736 0.101862
0.000391 0.224439 0.109664
0.003343 0.235169 0.089804
0.004507 0.227531 0.100330
0.006153 0.228443 0.094873
0.007950 0.214272 0.079328
0.017248 0.195773 0.081874
0.002886 0.210083 0.114506
0.000443 0.197883 0.122501
0.016541 0.194289 0.091480
0.023162 0.180903 0.085796
0.010229 0.178786 0.120953
0.015142 0.177144 0.112594
0.010935 0.194842 0.110218
0.001364 0.172087 0.132096
0.023663 0.173738 0.091576
0.023462 0.159101 0.104310
0.027323 0.173773 0.080349
0.035986 0.157963 0.068484
0.037060 0.151031 0.080381
0.013695 0.161633 0.125914
0.016115 0.163726 0.119637
0.019394 0.152030 0.119422
0.034242 0.140362 0.105362
0.020020 0.143241 0.125281
0.013010 0.142108 0.137696
0.014541 0.124235 0.170033
0.025223 0.124203 0.142029
0.020336 0.133736 0.137709
0.030872 0.129944 0.122899
0.035384 0.130350 0.114983
0.060093 0.101813 0.083388
0.047169 0.109336 0.105702
0.042844 0.124829 0.104583
0.052283 0.112753 0.092642
0.057230 0.105030 0.087304
0.040368 0.110735 0.121347
0.056169 0.097070 0.098800
0.045567 0.108330 0.110782
0.049640 0.101247 0.110327
0.048357 0.101027 0.114162
0.051884 0.135973 0.064016
0.059783 0.116536 0.064423
0.062037 0.107213 0.072873
0.056465 0.126589 0.060085
0.057866 0.125720 0.054464
0.064714 0.070115 0.098078
0.063728 0.040321 0.121579
0.062122 0.089265 0.092870
0.064451 0.078186 0.093340
0.057612 0.085651 0.109186
0.062033 0.087146 0.094599
0.069088 0.099940 0.053961
0.066024 0.121737 0.023927
0.073784 0.103403 0.026943
0.067890 0.119303 0.020743
0.062304 0.129631 0.024253
0.064724 0.125610 0.012779
0.061141 0.132614 0.013587
0.058533 0.134952 -0.019463
0.063491 0.127492 0.006620
0.060467 0.133303 0.006069
0.072027 0.056386 0.082949
0.080034 0.042985 0.064346
0.081392 0.036901 0.063762
0.075548 0.047461 0.076811
0.069242 0.087128 0.071836
0.065897 0.034967 0.118545
0.078965 0.064634 0.048436
0.079704 0.060951 0.048571
0.076697 0.063677 0.059923
0.077784 0.092101 0.027266
0.071338 0.088622 0.060653
0.077076 0.082314 0.040064
0.074969 0.078010 0.054053
0.068250 0.004349 0.086555
0.067200 0.017870 0.102056
0.073900 0.027194 0.084878
0.068392 0.016083 0.096054
0.071787 0.027672 0.093219
0.070023 0.024116 0.096798
0.064073 0.124201 -0.021563
0.073816 0.105590 -0.035553
0.067649 0.117520 -0.023127
0.069333 0.114689 -0.016316
0.066683 0.119621 -0.015606
0.082176 0.052890 0.043675
0.082381 0.067358 0.027735
0.084905 0.042052 0.038795
0.080688 0.077239 0.027544
0.081453 0.068710 0.031772
0.082371 0.081001 0.013888
0.083982 0.072413 0.002827
0.086683 0.059025 0.008015
0.080199 0.088956 -0.027487
0.084449 0.069068 -0.007052
0.086753 0.057582 -0.003275
0.079268 0.095196 -0.012310
0.065941 -0.008388 0.083770
0.073641 0.009007 0.069032
0.069421 0.112515 -0.050072
0.075222 0.102327 -0.045444
0.056450 0.136023 -0.052962
0.059863 0.130728 -0.043061
0.058471 0.132070 -0.055502
0.048417 0.146497 -0.048261
0.051391 0.141501 -0.067666
0.083566 0.010702 0.038313
0.082376 -0.000300 0.033749
0.079376 0.013264 0.053205
0.082928 -0.003166 0.029890
0.087668 0.017073 0.020739
0.089005 0.019527 0.013424
0.084590 0.022187 0.041223
0.087397 0.005880 0.018609
0.064098 -0.011770 0.078254
0.077901 -0.003930 0.043731
0.070395 -0.009975 0.051929
0.083597 0.073611 -0.036039
0.088266 0.050879 -0.011368
0.090781 0.041565 -0.028516
0.091706 0.037915 -0.032526
0.087755 0.053824 -0.018799
0.088351 0.051103 -0.017541
0.079352 0.092516 -0.040149
0.088499 0.003441 0.010693
0.089075 0.007900 -0.000748
0.091791 0.033164 -0.043427
0.091796 0.033867 -0.041760
0.089066 0.008849 0.002129
0.064738 0.107184 -0.093117
0.063422 0.110082 -0.094250
0.063231 0.111778 -0.091860
0.063134 0.115766 -0.084393
0.061050 0.118402 -0.090094
0.079012 0.093759 -0.042835
0.083224 0.074645 -0.046707
0.088582 0.046322 -0.057073
0.090002 0.042737 -0.054498
0.091530 0.039979 -0.050234
0.077663 0.079881 -0.068754
0.079115 0.078179 -0.063453
0.056853 0.112584 -0.111750
0.061440 0.108988 -0.102980
0.046736 0.133966 -0.114426
0.055763 0.122251 -0.102919
0.089964 -0.006114 -0.027550
0.090693 0.019891 -0.029637
0.090490 0.016109 -0.027569
0.090871 0.016794 -0.034224
0.090071 0.008685 -0.023127
0.077435 0.062833 -0.098924
0.078855 0.066259 -0.082625
0.079456 0.055440 -0.099992
0.081144 0.051337 -0.096793
0.072736 0.079342 -0.097777
0.080678 0.061027 -0.080751
0.084881 -0.015500 -0.020148
0.071367 -0.030542 0.006017
0.085844 -0.011146 0.002018
0.087844 -0.007682 0.007206
0.070940 -0.028895 0.014513
0.064891 -0.024145 0.039407
0.068089 -0.022997 0.033222
0.076149 -0.012553 0.032027
0.090244 0.028832 -0.058611
0.083389 -0.004392 -0.087518
0.084821 -0.004023 -0.081081
0.083835 0.010891 -0.086442
0.089132 -0.004808 -0.061573
0.081297 0.011945 -0.105273
0.082143 0.015305 -0.102672
0.086948 0.035307 -0.089007
0.084466 0.030418 -0.102552
0.076985 -0.032746 -0.030683
0.078136 -0.033207 -0.038061
0.077113 -0.036560 -0.041127
0.084810 -0.019809 -0.039735
0.078212 0.056773 -0.107165
0.068356 0.085630 -0.127313
0.066758 0.096757 -0.104862
0.066897 0.094348 -0.112565
0.061996 0.102352 -0.138969
0.056950 0.109163 -0.134689
0.062757 0.102058 -0.118450
0.079706 0.029350 -0.134504
0.083588 0.030512 -0.109074
0.076177 0.054595 -0.125729
0.081877 0.038327 -0.115584
0.075426 0.050662 -0.133641
0.079633 0.036690 -0.128283
0.080501 -0.007772 -0.094112
0.078087 -0.010025 -0.099653
0.086091 -0.012424 -0.068232
0.086556 -0.019475 -0.054409
0.074374 -0.027294 -0.086420
0.077021 -0.028926 -0.073436
0.077209 -0.029978 -0.070815
0.079227 0.017814 -0.127954
0.078411 0.000869 -0.120722
0.077716 -0.006536 -0.120292
0.078521 0.045261 -0.158302
0.074373 0.058107 -0.148799
0.079585 0.037351 -0.150388
0.072236 0.068432 -0.152217
0.079020 0.033817 -0.137242
0.084757 0.002663 -0.145156
0.084872 0.006351 -0.144976
0.081792 0.019135 -0.139213
0.081650 0.028052 -0.147419
0.087867 0.006394 -0.149913
0.081583 0.033401 -0.159714
0.068257 -0.016770 -0.130711
0.073271 -0.016485 -0.122951
0.077775 -0.016333 -0.137979
0.086951 -0.015426 -0.150318
0.082996 -0.027878 -0.149421
0.075239 -0.044643 -0.144853
0.074230 -0.020250 -0.136128
0.070204 -0.016948 -0.132964
0.057462 -0.028760 -0.129623
0.066967 -0.057086 -0.143247
0.061196 -0.048963 -0.066821
0.059680 -0.054738 -0.056619
0.063132 -0.045432 -0.070909
0.056957 -0.029507 -0.112095
0.052668 -0.058778 -0.060934
0.052469 -0.046474 -0.085398
0.063881 -0.032658 -0.097240
0.012772 -0.050478 -0.105574
0.027242 -0.041715 -0.113713
0.037497 -0.046848 -0.097613
0.020969 -0.053895 -0.092792
0.047827 -0.056588 -0.069465
0.037875 -0.045190 -0.101021
0.040144 -0.052016 -0.084513
0.017052 -0.045242 -0.113056
0.010285 -0.038621 -0.139471
0.014206 -0.039765 -0.131915
0.022305 -0.042343 -0.139433
0.021532 -0.042958 -0.140138
0.006990 -0.040752 -0.143418
0.024979 -0.051090 -0.144873
0.048203 -0.049348 -0.136336
0.049531 -0.055940 -0.140908
0.006445 -0.071351 -0.057343
0.005585 -0.062132 -0.081803
0.005163 -0.062297 -0.081624
0.024763 -0.061352 -0.072485
0.012975 -0.059053 -0.085431
0.000208 -0.073809 -0.054646
0.049456 -0.078406 -0.152837
0.053319 -0.075018 -0.151869
0.034915 -0.067915 -0.034683
0.034314 -0.067479 -0.049641
0.041732 -0.066376 -0.022778
0.045017 -0.066595 0.006333
0.040740 -0.067706 0.002413
0.038480 -0.068351 0.001725
0.036946 -0.066760 -0.048097
0.064145 -0.052419 -0.024166
0.054466 -0.060368 -0.054459
0.057366 -0.058003 -0.044092
0.060217 -0.055902 -0.016525
0.014360 -0.078141 0.011471
0.000525 -0.082285 0.001564
0.021268 -0.072958 -0.014824
0.033279 -0.071049 0.010720
0.030027 -0.071489 0.003036
0.001065 -0.080326 -0.016084
0.056869 -0.056971 0.004162
0.063647 -0.045698 0.002279
0.073452 -0.040853 -0.033460
0.060540 -0.053613 -0.004772
0.068096 -0.043937 -0.015194
0.037014 -0.070253 0.017864
0.016331 -0.077841 0.018228
0.010609 -0.079985 0.017868
0.020679 -0.074521 0.035541
0.055683 -0.050735 0.029877
0.056553 -0.045631 0.041622
0.051817 -0.051474 0.049603
0.050741 -0.051310 0.056304
0.044784 -0.056426 0.051956
0.046001 -0.064625 0.026026
0.046424 -0.061710 0.033867
0.039220 -0.068310 0.026182
0.026115 -0.065025 0.056900
0.037120 -0.061402 0.049758
0.058066 -0.038478 0.049174
0.059290 -0.037101 0.045822
0.055533 -0.036645 0.061351
0.016760 -0.067913 0.069533
0.042311 -0.052062 0.072534
0.043304 -0.052468 0.065928
0.012319 -0.070445 0.070479
0.010642 -0.067814 0.088458
0.054794 -0.034092 0.078453
0.026851 -0.058111 0.091582
0.047332 -0.045630 0.084278
0.060404 -0.017819 0.072652
0.033885 -0.053854 0.092463
0.022332 -0.063611 0.098360
0.023841 -0.065719 0.098099
0.068060 -0.033257 0.099105
0.061618 -0.020370 0.090621
0.052246 -0.048224 0.088875
0.038766 -0.071441 0.094393
0.062191 -0.046545 0.096373
0.059784 -0.070425 0.093992
0.045633 -0.084181 0.093121
0.052236 -0.091717 0.091319
0.055098 -0.082632 0.090390
0.060022 -0.074778 0.094070
0.056979 -0.087101 0.091603
0.061000 -0.093613 0.095027
0.078799 -0.063902 0.124617
0.077019 -0.061254 0.113621
0.075578 -0.079510 0.122480
0.071977 -0.084964 0.107407
0.076550 -0.089085 0.131996
0.072297 -0.107478 0.115291
0.061530 -0.110889 0.095249
0.065567 -0.116688 0.100377
0.057755 -0.132390 0.089159
0.068828 -0.139050 0.107858
0.069607 -0.162346 0.106633
0.057661 -0.152391 0.084353
0.063736 -0.146015 0.092265
0.065342 -0.145850 0.097228
0.057955 -0.162922 0.080670
0.059648 -0.176356 0.075158
0.073556 -0.195541 0.087817
0.067360 -0.204530 0.082934
0.073881 -0.195807 0.090098
0.055919 -0.193124 0.111195
0.072642 -0.204367 0.087836
0.071577 -0.202222 0.095080
0.066454 -0.228499 0.086177
0.064957 -0.240784 0.086611
0.068966 -0.214921 0.098151
0.068212 -0.218347 0.099342
0.064167 -0.213037 0.108668
0.061328 -0.211121 0.110056
0.045061 -0.208538 0.098192
0.057087 -0.211258 0.109734
0.062830 -0.225788 0.109439
0.068263 -0.268304 0.102526
0.063552 -0.275514 0.109193
0.052114 -0.218955 0.106762
0.054092 -0.228244 0.108922
0.052117 -0.250315 0.086790
0.049782 -0.245463 0.091805
0.049745 -0.262254 0.100680
0.057906 -0.270235 0.084629
0.062248 -0.256774 0.086250
0.053755 -0.292824 0.086173
0.051310 -0.283389 0.088857
0.057784 -0.286893 0.085108
0.069223 -0.304441 0.096034
0.066953 -0.314712 0.092269
0.060686 -0.329498 0.086917
0.068354 -0.338568 0.094216
0.073117 -0.343938 0.096622
0.078187 -0.348584 0.100532
0.085078 -0.358935 0.105722
0.084878 -0.368773 0.094690
0.074959 -0.365462 0.081438
0.083141 -0.368615 0.090457
0.066389 -0.362757 0.077923
0.070630 -0.367583 0.079389
0.061418 -0.361200 0.078327
0.059601 -0.352351 0.081367
0.054256 -0.369718 0.093002
0.067040 -0.369914 0.098784
0.054858 -0.369978 0.107351
0.071757 -0.369948 0.100318
0.049267 -0.348847 0.093076
0.047908 -0.349796 0.099557
0.048600 -0.343752 0.099036
0.048507 -0.326314 0.096768
0.048774 -0.338029 0.100696
0.047764 -0.290380 0.095795
0.051459 -0.288734 0.105751
0.052217 -0.308348 0.108291
0.052762 -0.290117 0.107925
0.052161 -0.323573 0.109602
0.063404 -0.301189 0.111336
0.056459 -0.322191 0.112901
0.061400 -0.314437 0.113429
0.070894 -0.332938 0.109410
0.050705 -0.335170 0.106057
0.064176 -0.357201 0.128148
0.075422 -0.355636 0.123230
0.049860 -0.351126 0.115000
0.052336 -0.353670 0.120401
0.087054 -0.369579 0.116188
0.055086 -0.369956 0.117037
0.060774 -0.369741 0.132305
0.055455 -0.369450 0.132327
0.070975 -0.368331 0.135280
-0.013066 -0.066260 0.094837
-0.000989 -0.078983 0.057375
-0.003325 -0.074556 0.072876
-0.020971 -0.062376 0.094559
-0.034863 -0.074221 0.095485
-0.027625 -0.071096 0.097281
-0.020083 -0.065675 0.070097
-0.025023 -0.063505 0.064685
-0.028164 -0.061631 0.064576
-0.035868 -0.056676 0.066748
-0.032663 -0.055990 0.083772
-0.018266 -0.069507 0.056005
-0.033099 -0.066971 0.039970
-0.047793 -0.065487 0.021133
-0.029625 -0.067557 0.043748
-0.047227 -0.055182 0.051619
-0.038045 -0.068897 0.026665
-0.015669 -0.076453 0.035169
-0.009272 -0.080601 0.017246
-0.001202 -0.080173 0.049781
-0.011794 -0.079674 0.016546
-0.011825 -0.076479 -0.014850
-0.014010 -0.078309 0.011029
-0.007764 -0.079503 0.000405
-0.020963 -0.074670 0.000078
-0.047507 -0.060873 0.090990
-0.048586 -0.058111 0.090466
-0.043353 -0.097889 0.093340
-0.036098 -0.089353 0.095395
-0.051205 -0.104680 0.090129
-0.046773 -0.065038 -0.022915
-0.048950 -0.065586 0.002204
-0.020088 -0.072648 -0.028318
-0.030082 -0.069073 -0.041606
-0.038511 -0.068689 0.002749
-0.035538 -0.069194 -0.005085
-0.037626 -0.067190 -0.034420
-0.011532 -0.073750 -0.047998
-0.005181 -0.066334 -0.070971
-0.038359 -0.062499 -0.061545
-0.005702 -0.070723 -0.059266
-0.000845 -0.065036 -0.076875
-0.035277 -0.062023 -0.064583
-0.055423 -0.104262 0.091206
-0.055398 -0.104025 0.091182
-0.037187 -0.043833 -0.105061
-0.036102 -0.049269 -0.093562
-0.020287 -0.049230 -0.103717
-0.038895 -0.045917 -0.099301
-0.057616 -0.111427 0.092983
-0.058044 -0.134727 0.089462
-0.044551 -0.038562 -0.110797
-0.027130 -0.041860 -0.113798
-0.008993 -0.046434 -0.118168
-0.021598 -0.042812 -0.115221
-0.014717 -0.040707 -0.128504
-0.005772 -0.046833 -0.120424
-0.007116 -0.039159 -0.141988
-0.042351 -0.052412 -0.139765
-0.023997 -0.055242 -0.148066
-0.025568 -0.035612 -0.133128
-0.065803 -0.028920 -0.101209
-0.060495 -0.042074 -0.082560
-0.064871 -0.032114 -0.096182
-0.044817 -0.037306 -0.112859
-0.048585 -0.050715 -0.137299
-0.057552 -0.056920 -0.141392
-0.053942 -0.093650 -0.156498
-0.052954 -0.091334 -0.155976
-0.054758 -0.100423 -0.158083
-0.074293 -0.013125 -0.130556
-0.069098 -0.020932 -0.114179
-0.060514 -0.022558 -0.129945
-0.070409 -0.037126 -0.139949
-0.071459 -0.014424 -0.133476
-0.070079 -0.046860 -0.142792
-0.070806 -0.038571 -0.068854
-0.068899 -0.046079 -0.055497
-0.071503 -0.039966 -0.064099
-0.071228 -0.033785 -0.079087
-0.059681 -0.055544 -0.038903
-0.070876 -0.045685 -0.041337
-0.049212 -0.065422 0.003483
-0.068098 -0.048087 -0.043440
-0.065108 -0.051002 -0.025652
-0.070718 -0.070911 -0.150643
-0.070645 -0.076209 -0.152099
-0.060100 -0.047283 0.012254
-0.055711 -0.058140 0.003220
-0.060154 -0.049699 0.004911
-0.059215 -0.049774 0.009553
-0.062301 -0.044676 0.008488
-0.050583 -0.048600 0.063008
-0.050671 -0.049983 0.057920
-0.065579 -0.035849 0.017991
-0.060253 -0.045890 0.015744
-0.073950 -0.033600 -0.073380
-0.071907 -0.026246 -0.094530
-0.075708 -0.025801 -0.080983
-0.075403 -0.035477 -0.033919
-0.077547 -0.025769 -0.020268
-0.079317 -0.027804 -0.035268
-0.076662 -0.027908 -0.021020
-0.059533 -0.021739 0.059244
-0.058732 -0.021831 0.062381
-0.055073 -0.032961 0.064682
-0.055063 -0.031352 0.073237
-0.086566 -0.012813 -0.025088
-0.069972 -0.031242 0.008084
-0.077386 -0.021152 0.006555
-0.073460 -0.017204 0.028282
-0.068534 -0.028393 0.019952
-0.069120 -0.017454 0.039297
-0.076026 -0.017630 -0.094043
-0.078207 -0.012872 -0.092644
-0.077190 -0.005014 -0.116724
-0.089121 0.012897 -0.022073
-0.089743 -0.008699 -0.043225
-0.088456 -0.005542 -0.018469
-0.090319 0.013631 -0.043424
-0.090757 0.030483 -0.043649
-0.089171 0.012408 -0.023193
-0.088701 -0.007405 -0.059207
-0.090533 0.033636 -0.053497
-0.082375 0.008787 -0.088913
-0.089266 0.029299 -0.058969
-0.084222 0.005395 -0.080324
-0.060747 -0.016066 0.064077
-0.073361 -0.002794 0.055728
-0.078092 0.008625 -0.119997
-0.078046 0.002859 -0.113017
-0.061987 -0.013903 0.079165
-0.059723 -0.017934 0.073027
-0.085345 -0.006682 0.016712
-0.075672 0.000707 0.052428
-0.079760 0.015465 0.050721
-0.072367 0.012049 0.074073
-0.069046 0.002963 0.078847
-0.085040 0.035999 0.037292
-0.086578 0.022904 0.023371
-0.087275 0.026236 0.020296
-0.084003 0.029741 0.041406
-0.088843 0.023404 0.009779
-0.087524 0.003095 0.008669
-0.087472 0.002159 0.008224
-0.089311 0.023597 -0.007524
-0.090597 0.031158 -0.038703
-0.064244 -0.032540 0.096331
-0.059520 -0.068437 0.094533
-0.059172 -0.062265 0.094286
-0.074990 -0.060440 0.107853
-0.088092 0.035575 -0.073130
-0.084401 0.017115 -0.080295
-0.082752 0.012534 -0.087737
-0.083629 0.030212 -0.101415
-0.081312 0.023829 -0.111372
-0.081519 0.027182 -0.113399
-0.081612 0.047939 -0.093742
-0.079744 0.050456 -0.101252
-0.083368 0.038990 -0.099567
-0.081190 0.059726 -0.073466
-0.084856 0.048850 -0.070348
-0.077977 0.063170 -0.088128
-0.084210 0.050673 -0.071077
-0.074575 0.056968 -0.126318
-0.073654 0.060560 -0.126920
-0.074535 0.052394 -0.131536
-0.079999 0.031745 -0.127253
-0.066140 0.094039 -0.111301
-0.072196 0.070858 -0.120388
-0.069221 0.083817 -0.109584
-0.074519 0.065184 -0.110901
-0.071076 0.075537 -0.117128
-0.086460 0.056191 -0.028611
-0.086425 0.054934 -0.013866
-0.083200 0.069531 -0.019586
-0.086607 0.056398 -0.037475
-0.081568 0.077380 -0.027280
-0.088025 0.050378 -0.039135
-0.078375 0.092340 -0.038234
-0.068866 0.096567 -0.087196
-0.082011 0.072657 -0.050720
-0.083727 0.055274 -0.065396
-0.085077 0.059244 -0.052892
-0.083401 0.060337 -0.060206
-0.086341 0.052268 -0.055760
-0.082941 0.069800 -0.049723
-0.087491 0.049294 0.001259
-0.081647 0.077649 -0.016167
-0.082435 0.075009 -0.001947
-0.077924 0.094693 -0.037444
-0.085738 0.059137 0.009423
-0.084870 0.061707 -0.009618
-0.081409 0.079570 -0.009227
-0.083728 0.049412 0.032529
-0.083785 0.059242 0.022236
-0.083673 0.053136 0.029077
-0.082865 0.050529 0.036418
-0.085582 0.047420 0.023759
-0.081667 0.042947 0.051074
-0.068767 0.106695 -0.069064
-0.068197 0.110690 -0.064588
-0.066608 0.098285 -0.096202
-0.065010 0.101380 -0.098838
-0.063403 0.113045 -0.085463
-0.077700 0.057891 0.056129
-0.074827 0.062028 0.065238
-0.076115 0.072072 0.049702
-0.073806 0.081777 0.050884
-0.072915 0.091384 0.045694
-0.079051 0.069474 0.038831
-0.065900 0.107231 0.048749
-0.064517 0.104742 0.059375
-0.066819 0.100853 0.057171
-0.071763 0.105126 0.028105
-0.063114 0.115551 0.044447
-0.066626 0.078927 0.082560
-0.070127 0.040047 0.097334
-0.072023 0.034897 0.094305
-0.074188 0.049728 0.076486
-0.066185 0.062488 0.095492
-0.075416 0.040260 0.078779
-0.079989 0.035012 0.065104
-0.064308 0.010441 0.103488
-0.064117 0.004991 0.099563
-0.066000 0.008280 0.095245
-0.078295 0.032388 0.069278
-0.058709 0.133303 -0.020997
-0.072320 0.108867 0.008091
-0.076041 0.101844 0.011305
-0.058351 0.135163 -0.004996
-0.070291 0.113163 0.012743
-0.066363 0.118008 -0.035448
-0.072458 0.107710 -0.008044
-0.056930 0.135930 -0.033029
-0.073623 0.105796 -0.001583
-0.071531 0.108940 -0.019818
-0.061006 0.125473 -0.069856
-0.069373 0.110887 -0.055474
-0.058922 0.129587 -0.067309
-0.057329 0.134132 -0.047556
-0.057704 0.131179 -0.076171
-0.056187 0.140046 0.021637
-0.054032 0.141447 0.006690
-0.044197 0.151819 -0.025731
-0.052088 0.142284 -0.042062
-0.053520 0.138019 -0.080656
-0.036937 0.156058 -0.026078
-0.027038 0.159682 -0.013904
-0.050190 0.133081 -0.104800
-0.058273 0.108384 -0.110454
-0.057380 0.122051 -0.097368
-0.063376 0.102348 -0.103137
-0.057302 0.107820 -0.134859
-0.041662 0.128243 -0.137962
-0.058085 0.106813 -0.133981
-0.041572 0.150795 -0.071495
-0.049167 0.143226 -0.073834
-0.044909 0.146905 -0.077396
-0.050561 0.137732 -0.096018
-0.050111 0.136891 -0.099428
-0.036471 0.145980 -0.111488
-0.028627 0.159298 -0.022167
-0.014761 0.165097 -0.026843
-0.015204 0.164499 -0.010200
-0.035785 0.156675 -0.065702
-0.022605 0.163653 -0.051926
-0.001141 0.177165 -0.039397
0.009788 0.169539 -0.034489
-0.020800 0.167201 -0.057802
-0.010902 0.178326 -0.052629
-0.019084 0.175638 -0.067308
-0.029698 0.161257 -0.090575
-0.007043 0.193203 -0.067915
-0.013802 0.192524 -0.077485
0.012920 0.178433 -0.053356
0.014480 0.175304 -0.050661
0.029655 0.159744 -0.035413
0.005567 0.201072 -0.074012
0.032821 0.159504 -0.054657
0.038348 0.156378 -0.044212
0.045952 0.149167 -0.050000
0.043120 0.152497 -0.046396
0.033814 0.157828 -0.089369
0.049350 0.143038 -0.075142
0.020446 0.175880 -0.068101
0.028463 0.165081 -0.083955
0.024759 0.166492 -0.064556
0.010499 0.196866 -0.073811
0.039768 0.150826 -0.093487
0.038045 0.151049 -0.097739
0.043056 0.141979 -0.106804
-0.003588 0.206083 -0.076296
0.000728 0.215364 -0.080726
0.001003 0.226607 -0.087375
-0.001220 0.230542 -0.088581
-0.000941 0.234169 -0.094119
-0.007512 0.213912 -0.087763
0.006376 0.221926 -0.100778
-0.021433 0.179659 -0.093690
-0.025689 0.169267 -0.087856
-0.007657 0.217952 -0.114058
-0.014678 0.197900 -0.102704
-0.007131 0.213334 -0.120206
-0.011588 0.193970 -0.124529
-0.017131 0.182849 -0.115289
-0.021686 0.178922 -0.102309
-0.016240 0.179725 -0.122028
-0.016604 0.181625 -0.118585
-0.030139 0.158916 -0.096467
-0.025582 0.163246 -0.107328
-0.007551 0.184759 -0.139131
-0.024693 0.157195 -0.117237
-0.019682 0.158736 -0.133170
-0.031908 0.155756 -0.097711
-0.029095 0.149847 -0.117880
-0.019748 0.141815 -0.156062
-0.006580 0.163200 -0.153339
0.010511 0.194070 -0.126838
0.010552 0.208473 -0.110350
0.018114 0.190897 -0.105500
0.019345 0.185650 -0.107072
0.016728 0.193767 -0.101911
0.015967 0.178120 -0.126405
0.015991 0.166728 -0.138902
0.020101 0.184922 -0.092020
0.025083 0.173890 -0.089692
0.023272 0.171150 -0.110237
0.027399 0.163065 -0.106182
0.020825 0.156948 -0.133850
0.018993 0.151743 -0.144941
0.021605 0.157559 -0.130741
0.005646 0.156173 -0.158699
0.031836 0.146930 -0.122821
0.036648 0.136117 -0.139425
0.032034 0.137654 -0.144634
-0.007409 0.150479 -0.161359
0.035219 0.134524 -0.147643
0.036540 0.128506 -0.164658
0.047644 0.116984 -0.154142
0.013381 0.141790 -0.164673
0.019109 0.137162 -0.167011
0.049218 0.114228 -0.158229
0.057420 0.105680 -0.154607
0.067263 0.084682 -0.166635
0.063135 0.100163 -0.143573
0.064265 0.094491 -0.165878
0.076198 0.055397 -0.169590
0.059178 0.101882 -0.169976
0.043455 0.116125 -0.174714
0.027058 0.119786 -0.186567
0.061825 0.093977 -0.174080
0.056847 0.079003 -0.193555
0.060423 0.069304 -0.192646
0.073143 0.058298 -0.174387
0.067940 0.072972 -0.175350
0.075546 0.051955 -0.173665
0.042140 0.089372 -0.209426
0.045224 0.099853 -0.192860
0.039399 0.102074 -0.198705
0.022487 0.113415 -0.198919
0.002519 0.129523 -0.179554
-0.004748 0.134877 -0.172550
0.000177 0.114116 -0.199492
-0.032474 0.135175 -0.148944
-0.040954 0.124961 -0.153596
-0.042815 0.121507 -0.156754
-0.007977 0.123298 -0.187246
-0.003966 0.114569 -0.199086
-0.025142 0.126490 -0.175243
-0.015397 0.120405 -0.188797
-0.046584 0.116080 -0.160282
-0.049434 0.112664 -0.165617
-0.041186 0.111141 -0.183676
-0.048993 0.112227 -0.170858
-0.006716 0.098099 -0.217005
0.001208 0.095920 -0.219163
-0.015849 0.087078 -0.221532
-0.018394 0.112191 -0.201114
-0.004208 0.078018 -0.234521
-0.011591 0.078635 -0.229211
-0.042140 0.103453 -0.192089
-0.049803 0.087873 -0.199199
-0.044847 0.093892 -0.199217
-0.033977 0.092776 -0.211095
-0.016314 0.075265 -0.230363
-0.034583 0.088344 -0.214002
-0.073688 0.060918 -0.164561
-0.066683 0.084266 -0.158930
-0.070655 0.070289 -0.170109
-0.065009 0.089406 -0.162363
-0.061608 0.076700 -0.184060
-0.061684 0.080048 -0.181795
-0.047965 0.078734 -0.209700
-0.050100 0.077102 -0.206516
-0.057206 0.076452 -0.192902
-0.068215 0.056237 -0.183932
-0.077749 0.036096 -0.139376
-0.073667 0.059460 -0.154496
-0.078431 0.033663 -0.140236
-0.073049 0.056140 -0.140961
-0.068816 0.073855 -0.141613
0.002007 0.084307 -0.231539
0.017509 0.089533 -0.219751
0.022353 0.110916 -0.201976
0.036091 0.092922 -0.210650
0.033777 0.077060 -0.222651
0.024053 0.088362 -0.218588
-0.000347 0.077146 -0.237026
0.016071 0.067803 -0.234299
0.003875 0.054836 -0.245922
0.014529 0.056820 -0.238067
-0.021209 0.066337 -0.231146
-0.037784 0.077247 -0.220552
-0.004089 0.032254 -0.249195
-0.034161 0.041883 -0.230757
-0.037290 0.061207 -0.224330
-0.003695 0.048744 -0.231138
-0.048076 0.066605 -0.219436
-0.048114 0.058198 -0.221846
-0.066976 0.050551 -0.194980
-0.070263 0.046808 -0.190663
-0.060646 0.055355 -0.210197
-0.069482 0.039982 -0.213847
-0.052269 0.066018 -0.217971
-0.018675 0.043687 -0.230423
-0.027864 0.040995 -0.231262
-0.000416 0.043327 -0.229014
-0.011098 0.040246 -0.237738
-0.007555 0.025946 -0.243120
-0.004194 0.003870 -0.239424
-0.002902 -0.007042 -0.239255
-0.006910 0.014155 -0.245540
-0.006728 -0.023639 -0.239292
-0.004895 -0.034889 -0.238585
-0.002088 -0.051813 -0.238360
-0.005374 0.018464 -0.248087
0.005408 0.026334 -0.248603
0.004535 0.036875 -0.249194
-0.004201 0.000067 -0.249226
0.002451 0.002412 -0.251855
0.009439 0.034088 -0.244093
0.007155 0.009455 -0.246885
0.005947 -0.005403 -0.247994
0.015586 0.051707 -0.233249
0.003048 0.018804 -0.238061
0.019631 0.038213 -0.229789
0.001835 0.045667 -0.229762
0.008438 0.014313 -0.241502
0.002929 -0.020089 -0.238900
0.007445 -0.029173 -0.241212
0.000031 -0.032302 -0.237872
0.009418 -0.047582 -0.243718
0.006921 -0.071370 -0.238751
0.009881 -0.050555 -0.244410
0.012878 -0.076393 -0.240518
0.004187 -0.102103 -0.242132
0.015189 -0.073249 -0.255395
0.012129 -0.096341 -0.245993
0.001574 -0.033021 -0.252356
0.003793 -0.070642 -0.259035
0.008428 -0.077492 -0.259909
-0.009684 -0.056805 -0.248901
-0.009963 -0.058153 -0.242260
-0.005382 -0.069399 -0.256085
-0.014470 -0.080846 -0.249716
0.002030 -0.093506 -0.264914
-0.006901 -0.100449 -0.241852
0.000304 -0.108899 -0.243497
-0.010815 -0.101310 -0.246290
-0.010832 -0.108229 -0.251087
-0.003905 -0.127726 -0.260277
-0.010894 -0.107345 -0.259146
0.016024 -0.088854 -0.255887
0.009348 -0.118393 -0.258998
0.005497 -0.127386 -0.256799
0.004992 -0.122708 -0.250781
-0.050171 -0.174090 0.078259
-0.044698 -0.137546 0.092216
-0.044831 -0.167520 0.087384
-0.042598 -0.142899 0.100557
-0.046520 -0.178654 0.081172
-0.042664 -0.173768 0.094836
-0.041742 -0.193196 0.095069
-0.054298 -0.232045 0.081462
-0.044325 -0.196557 0.088363
-0.045807 -0.203974 0.086349
-0.046453 -0.194827 0.102702
-0.045525 -0.167389 0.108058
-0.045523 -0.162071 0.108905
-0.046306 -0.153855 0.114176
-0.053701 -0.154578 0.119586
-0.059588 -0.172192 0.114524
-0.038598 -0.107014 0.116638
-0.042658 -0.119326 0.119391
-0.044168 -0.118487 0.094482
-0.033657 -0.084455 0.109338
-0.034892 -0.089640 0.111945
-0.026309 -0.073826 0.106405
-0.042300 -0.104532 0.132846
-0.040130 -0.089826 0.139384
-0.021498 -0.063838 0.126499
-0.023546 -0.070034 0.108125
-0.033332 -0.077595 0.137257
-0.016079 -0.065824 0.105932
-0.014347 -0.063399 0.124181
-0.011347 -0.059871 0.132417
-0.023471 -0.057944 0.145294
-0.030794 -0.060859 0.144674
-0.044327 -0.088640 0.141654
-0.052063 -0.121946 0.129458
-0.036187 -0.059090 0.153197
-0.056342 -0.059209 0.163437
-0.046061 -0.053646 0.161453
-0.039476 -0.049086 0.176638
-0.045126 -0.036503 0.188008
-0.055300 -0.106440 0.135444
-0.062241 -0.110064 0.128776
-0.058207 -0.020182 0.185668
-0.048068 -0.019312 0.196230
-0.048632 0.002258 0.198663
-0.056301 -0.012116 0.190894
-0.062563 -0.068279 0.155345
-0.061945 -0.061374 0.160578
-0.071477 -0.089632 0.138027
-0.068292 -0.096406 0.134774
-0.063031 -0.034106 0.175309
-0.067898 -0.041845 0.168236
-0.062706 -0.051877 0.166413
-0.065690 -0.051966 0.164447
-0.072489 -0.005001 0.174575
-0.076328 -0.015776 0.168506
-0.074198 -0.015170 0.171027
-0.052300 0.021954 0.190556
-0.065704 0.010166 0.175449
-0.051395 0.018422 0.195380
-0.070175 0.009236 0.162197
-0.068050 0.014248 0.160865
-0.070801 0.011000 0.151446
-0.066969 0.024502 0.133708
-0.074749 -0.000096 0.155814
-0.075310 -0.001151 0.139661
-0.075505 -0.002704 0.160498
-0.070325 0.014919 0.133856
-0.074637 0.000525 0.149920
-0.079898 -0.019886 0.134552
-0.078607 -0.035194 0.155321
-0.078891 -0.043198 0.153631
-0.069152 0.004751 0.113210
-0.079687 -0.015749 0.122200
-0.070328 0.004113 0.115148
-0.079579 -0.018590 0.120756
-0.070080 -0.023344 0.101544
-0.079927 -0.028483 0.125595
-0.080193 -0.025954 0.131403
-0.078484 -0.054786 0.147072
-0.077899 -0.068816 0.130572
-0.078565 -0.050547 0.140890
-0.077134 -0.072759 0.128476
-0.078383 -0.046743 0.112141
-0.072100 -0.114552 0.120938
-0.072417 -0.114617 0.122559
-0.072230 -0.104914 0.118954
-0.066602 -0.106499 0.102045
-0.066977 -0.118482 0.106465
-0.066341 -0.129897 0.105277
-0.066924 -0.130935 0.106595
-0.065620 -0.155533 0.111989
-0.062961 -0.156405 0.114207
-0.062238 -0.138444 0.092415
-0.062527 -0.158768 0.088853
-0.062042 -0.122444 0.095678
-0.068744 -0.174062 0.099361
-0.058450 -0.168024 0.078453
-0.071937 -0.181738 0.088154
-0.068933 -0.185697 0.083660
-0.071646 -0.189428 0.086745
-0.067533 -0.182317 0.108058
-0.064583 -0.181632 0.111017
-0.059587 -0.245124 0.081766
-0.063836 -0.247253 0.086609
-0.067269 -0.222355 0.098692
-0.048205 -0.204012 0.104531
-0.067272 -0.250257 0.101411
-0.065356 -0.255400 0.092630
-0.050369 -0.206604 0.107444
-0.044936 -0.212637 0.089545
-0.058345 -0.213466 0.109896
-0.051866 -0.214871 0.108384
-0.049399 -0.240350 0.086791
-0.048982 -0.240625 0.101640
-0.045463 -0.228313 0.095910
-0.059954 -0.233618 0.109537
-0.064149 -0.235876 0.107024
-0.049870 -0.249263 0.102725
-0.067384 -0.275989 0.099588
-0.055265 -0.281238 0.108357
-0.070666 -0.306194 0.104022
-0.068656 -0.294947 0.106195
-0.072221 -0.323611 0.102630
-0.072797 -0.340104 0.104094
-0.055263 -0.291143 0.108881
-0.081555 -0.363985 0.118314
-0.051916 -0.360436 0.123574
-0.048481 -0.369434 0.123890
-0.053702 -0.370852 0.115490
-0.044250 -0.366567 0.109930
-0.049613 -0.370655 0.113999
-0.067455 -0.370094 0.097340
-0.061151 -0.370358 0.101107
-0.052959 -0.370275 0.100255
-0.080953 -0.356383 0.108223
-0.079186 -0.357284 0.088582
-0.058756 -0.369335 0.086015
-0.048408 -0.368231 0.086936
-0.049055 -0.361174 0.086674
-0.075441 -0.350158 0.088698
-0.061218 -0.355091 0.079312
-0.052056 -0.350969 0.085877
-0.053686 -0.346300 0.084506
-0.052439 -0.316661 0.109445
-0.046260 -0.327634 0.100147
-0.050743 -0.325675 0.087620
-0.048649 -0.295770 0.101710
-0.050295 -0.281435 0.103400
-0.047018 -0.276050 0.096367
-0.054729 -0.296234 0.084351
-0.062577 -0.261526 0.087157
-0.066929 -0.289357 0.094670
-0.052581 -0.333385 0.086305
-0.057899 -0.337025 0.086098
-0.068362 -0.327448 0.094889
-0.079862 0.013992 -0.138229
-0.082957 0.009081 -0.143249
-0.081610 -0.003837 -0.142488
-0.080308 0.028982 -0.146309
-0.080571 0.027080 -0.143945
-0.085226 0.013595 -0.152213
-0.077926 -0.051933 -0.153195
-0.088112 -0.024761 -0.156746
-0.092253 -0.023745 -0.162017
-0.090069 -0.009628 -0.176093
-0.082559 -0.012930 -0.206349
-0.086856 0.000081 -0.179836
-0.089339 0.001175 -0.169831
-0.082540 -0.009957 -0.203957
-0.081114 0.021216 -0.183392
-0.077234 0.021131 -0.200563
-0.071867 0.032214 -0.215807
-0.078702 -0.009364 -0.218565
-0.080561 0.017516 -0.188485
-0.079057 0.025739 -0.188624
-0.087474 -0.036201 -0.159954
-0.075330 -0.065601 -0.153949
-0.080554 -0.068320 -0.159539
-0.080527 -0.022968 -0.219234
-0.094004 -0.027665 -0.164863
-0.089036 -0.030196 -0.183151
-0.084350 -0.033500 -0.200023
-0.090129 -0.025086 -0.181000
-0.086318 -0.046339 -0.187083
-0.075704 -0.096114 -0.162678
-0.070543 -0.108868 -0.161629
-0.063208 -0.007004 -0.227230
-0.072293 0.019508 -0.223199
-0.064804 -0.001813 -0.226491
-0.047148 0.028846 -0.229390
-0.049317 0.032350 -0.228595
-0.081560 -0.048495 -0.205388
-0.079733 -0.032505 -0.218905
-0.079862 -0.046900 -0.213092
-0.082368 -0.039848 -0.205166
-0.079123 -0.059703 -0.211506
-0.039451 0.026056 -0.231532
-0.031111 0.011027 -0.228128
-0.034425 0.022783 -0.229763
-0.052844 -0.058885 -0.226342
-0.054071 -0.022286 -0.229390
-0.072671 -0.022077 -0.225042
-0.052036 -0.027246 -0.229416
-0.041274 -0.027299 -0.228982
-0.043496 -0.029323 -0.229811
-0.066792 -0.045432 -0.224172
-0.062199 -0.057697 -0.223837
-0.065610 -0.077661 -0.219323
-0.023047 0.005070 -0.223105
-0.013827 -0.007480 -0.214958
-0.015982 -0.000045 -0.217496
-0.009724 -0.004387 -0.215267
-0.001397 -0.029005 -0.189462
-0.029784 -0.031256 -0.220614
-0.024917 -0.054381 -0.212275
-0.029015 -0.053591 -0.215713
-0.036862 -0.035847 -0.225621
-0.040037 -0.049168 -0.225755
-0.039831 -0.055559 -0.224359
-0.009645 -0.038603 -0.188507
-0.013688 -0.033479 -0.197329
-0.017476 -0.030493 -0.204244
-0.026216 -0.070761 -0.188928
-0.021541 -0.048356 -0.196074
-0.028006 -0.067194 -0.211801
-0.012232 -0.054263 -0.173632
-0.005001 -0.044437 -0.173772
-0.009778 -0.051554 -0.167930
-0.012608 -0.054415 -0.161193
-0.027952 -0.069700 -0.176560
-0.008918 -0.048004 -0.150983
-0.030852 -0.076264 -0.178422
-0.041867 -0.085937 -0.165889
-0.047098 -0.077740 -0.154298
-0.040777 -0.073261 -0.161963
-0.038566 -0.101065 -0.175671
-0.031726 -0.089590 -0.181036
-0.029614 -0.088602 -0.188493
-0.032766 -0.101438 -0.194156
-0.029751 -0.085741 -0.193402
-0.034204 -0.111181 -0.193917
-0.034023 -0.109600 -0.194345
-0.035623 -0.100687 -0.214189
-0.046582 -0.126789 -0.172604
-0.034992 -0.121689 -0.183966
-0.045371 -0.134680 -0.175208
-0.044459 -0.138069 -0.176775
-0.040152 -0.145004 -0.182918
-0.054448 -0.160460 -0.174803
-0.052200 -0.164975 -0.178881
-0.037753 -0.135577 -0.190805
-0.037896 -0.135051 -0.199663
-0.040685 -0.154532 -0.191057
-0.039417 -0.152048 -0.207047
-0.050049 -0.170823 -0.183552
-0.049042 -0.184169 -0.187356
-0.053924 -0.198430 -0.185651
-0.055991 -0.215884 -0.187927
-0.047244 -0.223472 -0.195677
-0.043269 -0.222627 -0.208720
-0.043134 -0.224830 -0.222665
-0.052553 -0.241529 -0.189813
-0.053830 -0.258931 -0.188124
-0.041358 -0.239723 -0.212858
-0.043396 -0.244171 -0.204071
-0.047815 -0.258765 -0.195685
-0.055389 -0.276042 -0.185919
-0.054285 -0.269073 -0.204813
-0.051611 -0.265119 -0.202147
-0.048182 -0.237383 -0.227688
-0.061711 -0.297596 -0.176038
-0.056107 -0.297918 -0.193295
-0.053341 -0.275429 -0.198680
-0.058360 -0.315999 -0.191531
-0.057048 -0.321728 -0.184965
-0.055420 -0.327713 -0.167697
-0.057091 -0.333713 -0.162301
-0.053923 -0.330302 -0.177242
-0.060463 -0.319362 -0.191506
-0.052682 -0.343503 -0.186218
-0.059413 -0.334656 -0.185995
-0.060930 -0.342478 -0.186169
-0.051458 -0.346469 -0.186107
-0.057848 -0.351349 -0.142765
-0.048140 -0.361821 -0.139980
-0.062214 -0.366168 -0.130240
-0.061361 -0.369953 -0.157231
-0.051194 -0.369053 -0.162966
-0.058327 -0.367293 -0.140627
-0.088494 -0.367569 -0.152266
-0.079366 -0.369245 -0.173601
-0.070911 -0.370469 -0.161927
-0.062627 -0.369674 -0.184016
-0.080668 -0.368096 -0.140277
-0.074302 -0.344884 -0.147553
-0.086606 -0.364684 -0.180880
-0.088917 -0.360275 -0.171625
-0.074465 -0.364856 -0.189259
-0.083195 -0.359008 -0.182889
-0.077563 -0.325600 -0.164832
-0.065622 -0.322672 -0.163193
-0.077453 -0.331892 -0.175830
-0.073497 -0.309428 -0.175315
-0.064109 -0.285854 -0.178894
-0.070425 -0.326855 -0.184923
-0.069873 -0.306808 -0.188936
-0.071883 -0.301879 -0.179178
-0.070406 -0.270147 -0.188432
-0.064153 -0.295847 -0.199580
-0.070680 -0.266402 -0.190911
-0.066855 -0.264542 -0.206403
-0.070206 -0.255438 -0.186920
-0.069818 -0.243724 -0.190524
-0.065405 -0.263708 -0.208463
-0.074891 -0.247527 -0.202823
-0.071039 -0.242611 -0.209665
-0.067607 -0.233518 -0.221358
-0.047226 -0.211956 -0.219041
-0.069054 -0.225073 -0.219244
-0.057227 -0.216521 -0.223644
-0.046555 -0.193959 -0.213384
-0.052552 -0.190773 -0.218412
-0.057130 -0.176992 -0.216550
-0.060552 -0.192582 -0.215107
-0.073765 -0.224701 -0.204068
-0.065414 -0.220941 -0.188501
-0.061003 -0.220156 -0.187565
-0.066574 -0.203019 -0.186653
-0.069534 -0.188204 -0.189654
-0.071138 -0.186977 -0.196767
-0.055555 -0.185777 -0.181530
-0.067915 -0.168890 -0.177038
-0.059216 -0.151182 -0.169288
-0.077354 -0.158487 -0.186298
-0.079195 -0.146965 -0.181735
-0.074457 -0.151988 -0.195209
-0.062819 -0.133827 -0.165642
-0.066637 -0.124440 -0.164413
-0.078549 -0.121976 -0.176311
-0.086854 -0.080758 -0.168891
-0.076023 -0.107262 -0.167074
-0.082807 -0.085715 -0.187084
-0.086186 -0.089074 -0.171993
-0.078379 -0.088708 -0.204677
-0.084074 -0.100109 -0.177552
-0.076315 -0.133031 -0.195871
-0.078213 -0.109025 -0.197603
-0.078060 -0.117886 -0.194476
-0.076479 -0.111521 -0.202211
-0.073161 -0.128827 -0.207363
-0.067429 -0.100204 -0.218862
-0.064296 -0.099902 -0.220327
-0.053231 -0.101646 -0.224484
-0.059876 -0.105124 -0.222173
-0.043270 -0.102923 -0.219983
-0.050149 -0.103815 -0.224123
-0.067695 -0.129976 -0.215799
-0.052990 -0.124783 -0.222465
-0.072084 -0.135598 -0.209320
-0.066962 -0.156270 -0.211696
-0.049266 -0.133514 -0.218469
-0.041383 -0.141935 -0.211882
-0.064801 -0.346057 -0.187543
-0.062426 -0.350036 -0.188137
-0.069585 -0.354912 -0.188410
0.000790 -0.037713 -0.172557
0.004324 -0.044093 -0.159649
0.017525 -0.056457 -0.160460
0.028986 -0.066589 -0.169081
0.040545 -0.065672 -0.150755
0.017890 -0.055243 -0.188718
0.008423 -0.040933 -0.188922
0.001094 -0.035563 -0.180542
0.044485 -0.087940 -0.164018
0.039446 -0.088178 -0.171771
0.041269 -0.078043 -0.164549
0.039592 -0.093051 -0.173692
0.007416 -0.026827 -0.203608
0.019934 -0.042082 -0.198843
0.000377 -0.001190 -0.213453
0.010033 0.000530 -0.217302
0.013005 0.000237 -0.217529
0.012183 0.005097 -0.219016
0.037942 -0.093966 -0.175773
0.045937 -0.117795 -0.171617
0.033972 -0.110118 -0.183412
0.028934 -0.064479 -0.205757
0.018169 -0.026254 -0.207768
0.020167 -0.030230 -0.211886
0.030194 -0.089746 -0.185419
0.030291 -0.090929 -0.184827
0.029725 -0.079647 -0.192264
0.024651 -0.000416 -0.223188
0.023357 0.019886 -0.227141
0.031068 -0.031800 -0.220875
0.028963 -0.032721 -0.218928
0.027003 -0.043471 -0.214763
0.027535 0.016538 -0.228490
0.030227 0.001287 -0.227788
0.026794 0.037729 -0.230858
0.032517 0.047580 -0.230774
0.037061 0.037728 -0.231750
0.040201 0.008498 -0.231595
0.033609 -0.011083 -0.227560
0.047069 0.046016 -0.226045
0.044211 0.045007 -0.227177
0.043077 0.043348 -0.228007
0.054952 0.026464 -0.227652
0.053822 0.023461 -0.228200
0.046776 0.028320 -0.230103
0.080697 0.037129 -0.174590
0.071802 0.046000 -0.190054
0.074046 0.040119 -0.196578
0.063697 0.055479 -0.200147
0.068012 0.047125 -0.204235
0.076746 0.011132 -0.215563
0.080260 -0.000132 -0.208962
0.080528 0.018935 -0.191977
0.081434 0.030595 -0.178227
0.080455 -0.007926 -0.214525
0.077242 0.009595 -0.214591
0.060082 -0.013745 -0.228817
0.069614 0.012775 -0.224063
0.060414 -0.005146 -0.228109
0.085650 0.005898 -0.182913
0.084471 0.000156 -0.192147
0.087634 -0.014054 -0.192327
0.084895 0.004310 -0.187067
0.092878 -0.006219 -0.166171
0.094765 -0.017754 -0.168854
0.044839 -0.060611 -0.225805
0.045751 -0.058480 -0.226954
0.079312 -0.022772 -0.223255
0.069767 -0.031455 -0.224853
0.065436 -0.038788 -0.225245
0.072484 -0.019794 -0.225299
0.087194 -0.030781 -0.194201
0.086737 -0.059566 -0.184281
0.093052 -0.020158 -0.175264
0.087521 -0.050668 -0.184793
0.083102 -0.030073 -0.210740
0.091446 -0.055232 -0.167347
0.085024 -0.060445 -0.161016
0.093779 -0.030474 -0.163990
0.084636 -0.050209 -0.158646
0.067881 -0.072348 -0.219627
0.060432 -0.063771 -0.223656
0.074780 -0.069267 -0.217630
0.081749 -0.044335 -0.211029
0.084831 -0.065337 -0.190230
0.083790 -0.070287 -0.192837
0.081100 -0.068614 -0.204879
0.085136 -0.057809 -0.191696
0.081841 -0.032293 -0.215057
0.037895 -0.096891 -0.215814
0.035313 -0.110542 -0.200319
0.036151 -0.118716 -0.201376
0.074281 -0.106206 -0.163361
0.081731 -0.078239 -0.161701
0.068561 -0.088690 -0.154995
0.062797 -0.097162 -0.156972
0.055153 -0.124994 -0.164194
0.077047 -0.109651 -0.168222
0.084168 -0.104879 -0.175261
0.085371 -0.100647 -0.176422
0.083269 -0.088213 -0.189098
0.084092 -0.078114 -0.188695
0.082469 -0.108814 -0.186211
0.061958 -0.122989 -0.164122
0.061737 -0.136056 -0.165875
0.076977 -0.118568 -0.201210
0.073878 -0.109666 -0.215032
0.079951 -0.110739 -0.194827
0.059066 -0.152635 -0.169956
0.057128 -0.119767 -0.223878
0.076841 -0.084408 -0.215109
0.071676 -0.125505 -0.214819
0.062664 -0.104088 -0.221382
0.053839 -0.081921 -0.223697
0.043890 -0.102940 -0.220097
0.081175 -0.133804 -0.183032
0.068445 -0.151541 -0.168423
0.072233 -0.164202 -0.177935
0.071949 -0.168570 -0.183293
0.071582 -0.154157 -0.203709
0.063188 -0.193362 -0.183421
0.073042 -0.173758 -0.189708
0.060619 -0.220350 -0.187360
0.068707 -0.203091 -0.188821
0.069401 -0.162274 -0.205645
0.073664 -0.175061 -0.192129
0.054458 -0.133009 -0.221342
0.051353 -0.126266 -0.220823
0.037825 -0.130260 -0.200188
0.036797 -0.119932 -0.210154
0.044162 -0.123284 -0.175295
0.038377 -0.136313 -0.183398
0.049021 -0.141082 -0.173898
0.039643 -0.144106 -0.209836
0.047204 -0.154833 -0.180943
0.054279 -0.150693 -0.172320
0.051704 -0.166373 -0.180722
0.042925 -0.163387 -0.188955
0.049152 -0.162574 -0.215883
0.043272 -0.171071 -0.192997
0.046101 -0.177941 -0.189514
0.051289 -0.187587 -0.186506
0.046685 -0.199366 -0.214234
0.054400 -0.197661 -0.185710
0.044275 -0.214971 -0.203138
0.052732 -0.215104 -0.191132
0.047252 -0.204479 -0.215751
0.044734 -0.208637 -0.213674
0.049020 -0.215190 -0.222131
0.043785 -0.223438 -0.213179
0.046803 -0.235877 -0.196240
0.041319 -0.235577 -0.207713
0.048712 -0.239794 -0.194457
0.055223 -0.262103 -0.187397
0.059938 -0.278873 -0.180804
0.054057 -0.267368 -0.205597
0.053650 -0.270546 -0.200424
0.057577 -0.296518 -0.180610
0.054821 -0.281871 -0.197520
0.056077 -0.293043 -0.194295
0.062980 -0.297850 -0.199087
0.058336 -0.311836 -0.191074
0.058255 -0.325335 -0.167383
0.064409 -0.334079 -0.157529
0.054585 -0.332326 -0.175519
0.053908 -0.347621 -0.152556
0.059770 -0.348993 -0.145042
0.065482 -0.353361 -0.137976
0.046885 -0.354417 -0.159746
0.047369 -0.355813 -0.177874
0.042866 -0.362326 -0.153784
0.054771 -0.361771 -0.133337
0.066705 -0.363570 -0.128156
0.073374 -0.366365 -0.125992
0.048225 -0.365631 -0.138935
0.043739 -0.368192 -0.157315
0.064108 -0.368668 -0.145915
0.058863 -0.369829 -0.159980
0.077162 -0.368751 -0.140483
0.081485 -0.367329 -0.133890
0.061409 -0.370033 -0.170642
0.085521 -0.365337 -0.133021
0.084196 -0.368390 -0.151207
0.085513 -0.368598 -0.169355
0.084007 -0.368681 -0.179219
0.087018 -0.352961 -0.146805
0.073372 -0.343876 -0.146988
0.073834 -0.341069 -0.150721
0.089241 -0.357205 -0.165418
0.075962 -0.369570 -0.178888
0.058830 -0.369467 -0.186272
0.060074 -0.369892 -0.177201
0.044979 -0.366878 -0.179430
0.079746 -0.356094 -0.185400
0.064519 -0.327041 -0.188259
0.066925 -0.296827 -0.176655
0.062332 -0.285178 -0.178323
0.072781 -0.308013 -0.185719
0.073489 -0.308157 -0.183141
0.070511 -0.277345 -0.181133
0.071317 -0.280821 -0.182087
0.069031 -0.285481 -0.198121
0.072378 -0.267619 -0.196142
0.065773 -0.274740 -0.205284
0.062371 -0.286200 -0.202716
0.074052 -0.258131 -0.196918
0.067336 -0.266472 -0.206264
0.074483 -0.243807 -0.206550
0.076076 -0.238070 -0.201919
