0.047761 -0.104843 -0.156089
0.055563 -0.106249 -0.149553
0.066884 -0.112678 -0.152026
0.064334 -0.123330 -0.157934
0.045352 -0.082650 -0.148106
0.040598 -0.070337 -0.146541
0.040252 -0.081383 -0.155186
0.057007 -0.155533 -0.180960
0.028671 -0.056536 -0.147815
0.022839 -0.054463 -0.164583
0.001062 -0.046465 -0.172901
0.010205 -0.050920 -0.142895
0.011866 -0.050459 -0.133705
0.020167 -0.049494 -0.126013
0.006829 -0.049982 -0.125604
0.037258 -0.053375 -0.123430
0.017336 -0.047713 -0.105890
0.006853 -0.046903 -0.088324
0.029011 -0.048319 -0.112519
0.027243 -0.045386 -0.101944
0.043124 -0.060075 -0.132086
0.046737 -0.073081 -0.142140
0.006036 -0.052286 -0.059251
0.001598 -0.049075 -0.073053
0.049873 -0.052648 -0.119235
0.059316 -0.062880 -0.128152
0.060161 -0.059652 -0.127283
0.072411 -0.098814 -0.155230
0.040270 -0.043114 -0.104342
0.073704 -0.071130 -0.147396
0.071191 -0.083944 -0.149083
0.065725 -0.061235 -0.132493
0.074982 -0.047376 -0.140265
0.069017 -0.032014 -0.127377
0.054222 -0.030038 -0.104988
0.064618 -0.025512 -0.120104
0.061686 -0.021542 -0.114394
0.049527 -0.031678 -0.092594
0.035103 -0.040525 -0.078816
0.016917 -0.048258 -0.066061
0.022128 -0.049799 -0.056845
0.057721 -0.005499 -0.099255
0.036323 -0.042556 -0.061269
0.025762 -0.050987 -0.045286
0.044451 -0.036646 -0.071902
0.045988 -0.035284 -0.047501
0.003204 -0.064044 -0.026115
0.014693 -0.062805 -0.025631
0.038930 -0.052860 -0.021424
0.029207 -0.054387 -0.031037
0.034463 -0.055992 -0.019529
0.015925 -0.071111 -0.002972
0.003615 -0.075034 0.002764
0.026781 -0.064949 -0.005474
0.022932 -0.074564 0.014664
0.044870 -0.041971 -0.031690
0.044701 -0.041265 -0.033996
0.044680 -0.055624 0.010390
0.046812 -0.049138 -0.005486
0.048191 -0.047988 -0.003329
0.011952 -0.080928 0.023319
0.003709 -0.087463 0.044142
0.003366 -0.091882 0.077152
0.034344 -0.071376 0.033890
0.025003 -0.079171 0.037914
0.027090 -0.079835 0.046670
0.016137 -0.089586 0.072755
0.030627 -0.077775 0.050011
0.029134 -0.080527 0.062321
0.005531 -0.095737 0.103937
0.004884 -0.095125 0.099659
0.044863 -0.061400 0.034121
0.044719 -0.065026 0.048029
0.052092 -0.053081 0.034295
0.049776 -0.054428 0.029242
0.024860 -0.085537 0.076494
0.040611 -0.070803 0.055985
0.054985 -0.054240 0.052105
0.006286 -0.098459 0.125073
0.003861 -0.098906 0.124062
0.023542 -0.091389 0.115927
0.005212 -0.098318 0.152413
0.003120 -0.098877 0.146562
-0.000457 -0.099655 0.130890
0.008004 -0.095169 0.170197
0.017916 -0.095328 0.134982
0.018355 -0.089843 0.183087
0.020433 -0.094532 0.132671
0.022371 -0.092875 0.138372
0.033830 -0.083388 0.156545
0.037083 -0.099286 0.167392
0.030866 -0.099229 0.179019
0.031895 -0.107661 0.186094
0.041193 -0.087004 0.157175
0.035988 -0.080956 0.128504
0.036353 -0.079296 0.091359
0.034809 -0.080764 0.094281
0.035066 -0.110314 0.180321
0.038417 -0.078379 0.120923
0.043135 -0.071864 0.085603
0.043650 -0.071460 0.142645
0.049175 -0.065941 0.117207
0.041651 -0.074746 0.120667
0.051245 -0.072300 0.144422
0.062776 -0.045098 0.087509
0.059545 -0.048411 0.066076
0.063326 -0.046401 0.117544
0.064948 -0.043757 0.126407
0.061542 -0.048001 0.093180
0.064707 -0.042397 0.094152
0.065903 -0.037389 0.071370
0.062452 -0.041559 0.055615
0.059605 -0.040539 0.029757
0.062105 -0.041474 0.051735
0.071801 -0.023556 0.062376
0.072940 -0.015748 0.061676
0.065024 -0.031001 0.036577
0.058792 -0.040101 0.023383
0.071390 -0.021306 0.053312
0.071586 -0.012436 0.046180
0.057328 -0.033786 -0.003582
0.059252 -0.033054 0.007628
0.076006 -0.001640 0.083053
0.075775 -0.001928 0.079213
0.072524 -0.029800 0.117609
0.072163 -0.030443 0.108195
0.064395 -0.021574 0.011068
0.060080 -0.019995 -0.017440
0.056528 -0.025225 -0.025698
0.071790 -0.004596 0.040230
0.072870 0.004236 0.039657
0.064690 -0.008849 -0.006168
0.064413 -0.012649 -0.005340
0.070072 0.003575 0.021903
0.070055 0.006263 0.019535
0.055567 -0.023054 -0.034930
0.061435 -0.015039 -0.022277
0.063461 -0.010549 -0.016897
0.062373 -0.010730 -0.028985
0.056101 -0.013282 -0.060046
0.052970 -0.018089 -0.068767
0.057579 -0.005150 -0.084743
0.065969 0.011455 -0.015022
0.061609 -0.005206 -0.044037
0.060093 -0.001187 -0.059295
0.066433 0.026727 0.002556
0.065537 0.017425 -0.017901
0.065436 0.022257 -0.009835
0.071912 0.020182 0.043877
0.074559 0.011728 0.056647
0.075576 0.007703 0.062636
0.076138 0.004723 0.066296
0.067538 0.027745 0.011500
0.066502 0.036111 0.011079
0.069706 0.036228 0.041089
0.070630 0.038143 0.054802
0.074301 0.022190 0.086023
0.073671 0.026215 0.085455
0.065787 0.050990 0.048776
0.066711 0.050622 0.061843
0.064234 0.056400 0.056252
0.064093 0.058654 0.071506
0.064968 0.055809 0.066460
0.077820 0.013007 0.107690
0.073493 0.032815 0.098441
0.073170 -0.028655 0.125502
0.076850 -0.007367 0.112450
0.075684 0.036437 0.114680
0.077864 0.018137 0.113291
0.085888 0.002246 0.135377
0.070068 0.048677 0.104294
0.064249 0.061175 0.100208
0.060321 0.068813 0.074145
0.060814 0.068462 0.095187
0.079803 0.031619 0.140554
0.077737 0.033313 0.124657
0.080106 0.034319 0.145092
0.071334 0.052367 0.118535
0.068499 0.065889 0.129245
0.081392 -0.013000 0.133584
0.057946 -0.056572 0.134344
0.084771 0.019927 0.147356
0.087878 -0.005502 0.143403
0.069666 -0.058187 0.140099
0.055273 -0.082967 0.153401
0.083769 -0.038300 0.142975
0.087213 -0.012779 0.144684
0.063495 -0.085316 0.154135
0.090502 0.000330 0.158072
0.090544 -0.001669 0.154509
0.084802 0.021029 0.151831
0.087874 0.011220 0.161502
0.084025 -0.059853 0.152139
0.083151 -0.048374 0.145797
0.077564 -0.073885 0.153604
0.038677 -0.124593 0.178290
0.046079 -0.135389 0.169732
0.036110 -0.147898 0.192074
0.049923 -0.120717 0.161366
0.052371 -0.131386 0.162237
0.053845 -0.130595 0.160837
0.044924 -0.145437 0.175399
0.040033 -0.167729 0.186566
0.060490 -0.151229 0.162246
0.052643 -0.146600 0.167480
0.047688 -0.169491 0.174401
0.059714 -0.171121 0.165605
0.051851 -0.180021 0.172169
0.045210 -0.195969 0.179794
0.039785 -0.205436 0.189526
0.056949 -0.197752 0.169499
0.059287 -0.189368 0.167679
0.063544 -0.200057 0.167500
0.047663 -0.205318 0.177299
0.044115 -0.207516 0.181812
0.042231 -0.227976 0.185270
0.042016 -0.236808 0.186074
0.045096 -0.239444 0.181549
0.043149 -0.285126 0.202412
0.047191 -0.315181 0.196832
0.062719 -0.314354 0.182378
0.069768 -0.320392 0.185018
0.066007 -0.318605 0.183619
0.073461 -0.319052 0.185503
0.069847 -0.303350 0.184654
0.072300 -0.306875 0.185307
0.057013 -0.291029 0.183327
0.073433 -0.289195 0.189160
0.083007 -0.306788 0.211720
0.071204 -0.327722 0.244455
0.074413 -0.306371 0.222824
0.076858 -0.298391 0.211716
0.068379 -0.304604 0.222659
0.064160 -0.319340 0.242745
0.063441 -0.308971 0.231387
0.053453 -0.315369 0.237825
0.053583 -0.310846 0.233521
0.053090 -0.305586 0.224062
0.042068 -0.321796 0.229867
0.043540 -0.327492 0.221151
0.043504 -0.311222 0.222321
0.044803 -0.306240 0.214614
0.042391 -0.295287 0.204237
0.046870 -0.295583 0.211996
0.060597 -0.300729 0.220026
0.042849 -0.272194 0.198873
0.052940 -0.255456 0.211368
0.046040 -0.259891 0.207189
0.042629 -0.246074 0.202522
0.039328 -0.247877 0.194962
0.041191 -0.230019 0.199019
0.050424 -0.236223 0.209107
0.041325 -0.219639 0.202676
0.050955 -0.234850 0.209533
0.053761 -0.239848 0.209826
0.039040 -0.177285 0.200535
0.038825 -0.167949 0.199810
0.046371 -0.183341 0.210865
0.039533 -0.137227 0.207120
0.050522 -0.167313 0.214858
0.044781 -0.146098 0.212109
0.030004 -0.116966 0.196684
0.051530 -0.149577 0.216452
0.041579 -0.123829 0.212471
0.037827 -0.111658 0.212023
0.055477 -0.172789 0.214827
0.064618 -0.138046 0.215471
0.042030 -0.101418 0.220284
0.030106 -0.096590 0.208356
0.012256 -0.084487 0.202221
0.026516 -0.088269 0.216763
-0.002675 -0.083618 0.206975
0.013722 -0.081545 0.209033
0.002842 -0.065697 0.232627
0.014342 -0.065899 0.234830
0.017648 -0.077471 0.219203
0.007067 -0.031723 0.263475
-0.004098 -0.016861 0.267117
0.014958 -0.041389 0.254759
0.024663 -0.044472 0.250082
0.026171 -0.009896 0.269015
0.030472 -0.028654 0.258133
0.024381 -0.028707 0.260130
0.026284 -0.007570 0.269361
0.024068 0.005533 0.269874
0.012226 0.007576 0.272073
0.031928 0.013877 0.268349
0.023747 0.021402 0.271573
0.002105 0.036569 0.282408
0.018134 0.036473 0.275990
0.009976 0.088127 0.289632
0.003709 0.101520 0.289681
0.017195 0.078689 0.285177
0.015417 0.085734 0.288157
0.005401 0.119753 0.295477
0.013129 0.134885 0.303313
0.012051 0.118371 0.297461
0.018828 0.106086 0.289194
0.017999 0.126116 0.297321
0.021866 0.125513 0.291409
0.022460 0.110656 0.285815
0.030964 0.133370 0.283627
0.027752 0.112152 0.281660
0.039198 0.101603 0.274676
0.023877 0.090287 0.281344
0.038938 0.140878 0.277780
0.035061 0.119077 0.277868
0.045399 0.135439 0.271606
0.043483 0.169209 0.268224
0.048075 0.158853 0.256664
0.042546 0.185758 0.250705
0.047059 0.163082 0.249817
0.036235 0.210138 0.252301
0.040145 0.182699 0.242336
0.024856 0.222087 0.239631
0.021813 0.225525 0.238355
0.014532 0.225003 0.229509
0.004541 0.238025 0.235757
0.006740 0.219992 0.220425
-0.015730 0.235227 0.239962
-0.004767 0.222972 0.222416
-0.026377 0.215003 0.234281
-0.030861 0.219793 0.248852
-0.039949 0.201257 0.254800
-0.033232 0.202474 0.237604
-0.044294 0.178525 0.261896
-0.032358 0.197874 0.233596
-0.040410 0.187892 0.244724
-0.033221 0.188131 0.228708
-0.007683 0.184308 0.195836
-0.015894 0.186546 0.203347
-0.043267 0.171152 0.239199
-0.020334 0.187486 0.207780
-0.042556 0.167418 0.236424
-0.032210 0.174314 0.217209
-0.047052 0.157474 0.247140
-0.039787 0.158097 0.223555
-0.034624 0.152452 0.207347
-0.044180 0.150427 0.231748
-0.049793 0.139886 0.249706
-0.041689 0.144949 0.215403
-0.049169 0.133423 0.238591
-0.047424 0.129831 0.224738
-0.050215 0.123715 0.239506
-0.047676 0.153064 0.263042
-0.044402 0.167292 0.264829
-0.048318 0.123516 0.266530
-0.038606 0.145699 0.279105
-0.033635 0.152999 0.289121
-0.028290 0.128302 0.284644
-0.016891 0.139650 0.302844
-0.026876 0.115631 0.282999
-0.024174 0.118846 0.286207
-0.033812 0.113980 0.278773
-0.015808 0.133522 0.302010
-0.006787 0.122941 0.297633
-0.009825 0.113870 0.295844
-0.002380 0.119990 0.294512
-0.003169 0.106920 0.290935
0.000165 0.107017 0.290823
-0.004595 0.069592 0.287518
-0.008620 0.061587 0.287220
-0.017399 0.080231 0.285335
-0.017201 0.083321 0.286172
-0.019668 0.100893 0.286295
-0.017106 0.040427 0.277287
-0.022222 0.087542 0.282175
-0.034217 0.097033 0.275798
-0.043574 0.107507 0.271972
-0.023267 0.062540 0.277925
-0.037658 0.073951 0.270256
-0.050093 0.117839 0.252707
-0.046035 0.076815 0.262862
-0.045609 0.089211 0.263540
-0.042983 0.054249 0.265424
-0.037573 0.042302 0.269011
-0.054328 0.098727 0.240525
-0.052649 0.093275 0.249735
-0.054801 0.099903 0.229102
-0.052063 0.113379 0.226715
-0.047181 0.128020 0.221595
-0.057800 0.073663 0.239342
-0.054932 0.099462 0.216441
-0.057072 0.092093 0.217321
-0.060058 0.082615 0.223342
-0.062181 0.076380 0.225836
-0.046605 0.118699 0.201403
-0.054339 0.101399 0.197819
-0.061338 0.065781 0.236066
-0.049055 0.061992 0.259494
-0.069212 0.069561 0.193435
-0.063113 0.082920 0.194023
-0.066426 0.073330 0.201212
-0.067367 0.063160 0.223074
-0.068861 0.064057 0.211473
-0.055116 0.040345 0.258068
-0.064931 0.045929 0.242767
-0.057128 0.094476 0.165775
-0.065496 0.079059 0.187677
-0.059009 0.091762 0.194170
-0.051392 0.105795 0.190026
-0.053939 0.100722 0.173738
-0.073988 0.056204 0.196231
-0.080921 0.042195 0.183749
-0.074814 0.055201 0.192908
-0.068902 0.071959 0.171872
-0.063400 0.082442 0.167859
-0.070460 0.067824 0.158229
-0.075012 0.057552 0.170599
-0.073060 0.033543 0.231773
-0.070130 0.041710 0.232781
-0.081708 0.035498 0.196375
-0.082009 0.030032 0.209188
-0.047657 0.034604 0.263873
-0.040077 0.035091 0.267864
-0.077867 0.023202 0.226416
-0.067531 0.033176 0.246998
-0.035819 0.024438 0.268583
-0.006508 0.014947 0.273666
-0.022784 0.005303 0.270126
-0.007989 -0.025077 0.265117
-0.053941 0.024641 0.259755
-0.045683 0.013338 0.264668
-0.060682 0.012942 0.254347
-0.022003 -0.030862 0.259754
-0.038642 -0.028548 0.255101
-0.032871 -0.008923 0.266988
-0.084312 0.014963 0.211590
-0.083840 0.030436 0.190406
-0.084165 0.018667 0.209861
-0.061024 0.002968 0.252763
-0.076145 0.005430 0.235477
-0.076735 -0.001736 0.233374
-0.052201 -0.012084 0.255199
-0.068500 -0.013690 0.242132
-0.059918 -0.025133 0.247926
-0.050033 -0.032721 0.249627
-0.064057 -0.035434 0.240805
-0.082676 -0.033869 0.216086
-0.082218 -0.020560 0.220762
-0.086082 -0.013601 0.212074
-0.065201 -0.048425 0.235400
-0.082596 -0.034870 0.215845
-0.075574 -0.041739 0.224675
-0.069439 -0.062185 0.225874
-0.058857 -0.051187 0.241397
-0.025792 -0.035240 0.255462
-0.027225 -0.033989 0.255874
-0.032754 -0.050376 0.249076
-0.003520 -0.049312 0.248995
-0.030623 -0.055749 0.245839
-0.054040 -0.063737 0.239612
-0.042035 -0.067002 0.241090
-0.053742 -0.079482 0.232479
-0.023907 -0.070663 0.235730
-0.046617 -0.075503 0.236599
-0.013279 -0.071304 0.225648
-0.018815 -0.068697 0.231993
-0.007792 -0.082984 0.207473
-0.015157 -0.085638 0.197748
-0.030760 -0.092618 0.216181
-0.023084 -0.092882 0.204441
-0.055153 -0.089165 0.225613
-0.034494 -0.104848 0.208887
-0.027960 -0.105816 0.196682
-0.046805 -0.101746 0.221676
-0.036424 -0.120028 0.205827
-0.053433 -0.119405 0.220188
-0.040410 -0.130757 0.209841
-0.039620 -0.152861 0.204803
-0.052407 -0.153207 0.216885
-0.040357 -0.158493 0.205369
-0.040053 -0.182190 0.203302
-0.051194 -0.174955 0.214889
-0.055883 -0.171351 0.214820
-0.046731 -0.194952 0.210089
-0.043235 -0.213942 0.205588
-0.067875 -0.128512 0.214713
-0.060897 -0.123320 0.218348
-0.059031 -0.175862 0.213326
-0.064236 -0.112091 0.218806
-0.060923 -0.094897 0.222451
-0.074642 -0.142333 0.204890
-0.067810 -0.073610 0.222300
-0.077798 -0.071138 0.213526
-0.075545 -0.084424 0.212179
-0.084632 -0.058257 0.208030
-0.079242 -0.052151 0.215163
-0.077221 -0.097006 0.204135
-0.074900 -0.109628 0.207564
-0.090488 -0.038049 0.195904
-0.092289 -0.034018 0.189423
-0.088410 -0.022747 0.206341
-0.090904 -0.049503 0.188435
-0.084626 -0.082868 0.182319
-0.090250 -0.063363 0.179374
-0.090471 -0.008354 0.189720
-0.089127 -0.000755 0.194369
-0.088465 0.006411 0.189566
-0.085516 0.024879 0.184047
-0.091429 -0.054670 0.173562
-0.092337 -0.040940 0.159169
-0.091551 -0.012637 0.168578
-0.089749 -0.062722 0.172314
-0.087806 -0.069334 0.171795
-0.090673 -0.002356 0.159879
-0.090887 -0.003261 0.169592
-0.082573 0.030128 0.155503
-0.083936 0.031488 0.169481
-0.089699 0.005070 0.165295
-0.090089 0.002412 0.158100
-0.077138 0.048390 0.154220
-0.076203 0.052854 0.160646
-0.089533 -0.030308 0.149677
-0.086907 -0.061887 0.156526
-0.087427 0.010110 0.147250
-0.088271 0.000744 0.141781
-0.069032 0.066838 0.138293
-0.077671 0.044782 0.146703
-0.066448 0.075944 0.153838
-0.061968 0.081679 0.138294
-0.083420 0.018062 0.141298
-0.078750 0.041329 0.145234
-0.071930 0.054976 0.125058
-0.077328 0.037366 0.125729
-0.058380 0.089636 0.146836
-0.051358 0.100096 0.143378
-0.051320 0.098274 0.135823
-0.066682 0.064979 0.117991
-0.065457 0.071385 0.122444
-0.058368 0.084364 0.125841
-0.055788 0.082846 0.110375
-0.079888 0.014683 0.122694
-0.076745 0.025353 0.112278
-0.070773 0.044902 0.099714
-0.081168 -0.003808 0.128832
-0.083665 -0.005764 0.134859
-0.077199 0.007511 0.097673
-0.076529 0.017667 0.103618
-0.078395 -0.003132 0.116607
-0.079531 0.000877 0.117840
-0.067578 0.050626 0.088762
-0.061257 0.066398 0.074401
-0.058622 0.072792 0.064404
-0.075494 0.014604 0.087179
-0.072499 0.032943 0.080033
-0.061443 0.065426 0.067163
-0.064205 0.058634 0.074511
-0.073714 -0.022062 0.114300
-0.072559 -0.030496 0.123085
-0.076348 0.006111 0.077022
-0.074804 0.015103 0.069994
-0.075170 -0.004316 0.074701
-0.075690 0.001381 0.066077
-0.064551 0.055255 0.054467
-0.067998 0.045987 0.054694
-0.061230 0.064370 0.055406
-0.073116 0.019697 0.054189
-0.072525 0.023486 0.053884
-0.069770 0.035619 0.041020
-0.068587 0.036292 0.027723
-0.073886 -0.009665 0.062895
-0.072966 -0.017884 0.072170
-0.074841 0.004887 0.052038
-0.073022 0.001076 0.043396
-0.070423 -0.011344 0.037229
-0.069410 -0.019258 0.037891
-0.071438 -0.030920 0.099873
-0.071429 -0.033504 0.121201
-0.064755 -0.037321 0.056361
-0.071359 -0.028980 0.084101
-0.058521 -0.053196 0.090954
-0.055789 -0.056725 0.078996
-0.066448 -0.024271 0.029500
-0.059758 -0.037267 0.022337
-0.057140 -0.046281 0.033438
-0.069294 -0.027696 0.052269
-0.059929 -0.051559 0.119016
-0.056251 -0.056949 0.130966
-0.069447 -0.047764 0.135972
-0.052663 -0.060967 0.083141
-0.042445 -0.071947 0.080513
-0.073615 -0.059095 0.142167
-0.081543 -0.054612 0.147010
-0.049458 -0.065487 0.123922
-0.050936 -0.063930 0.113670
-0.040472 -0.075687 0.106451
-0.043236 -0.072912 0.112887
-0.081326 -0.083015 0.164831
-0.057581 -0.064202 0.138597
-0.055184 -0.066945 0.140519
-0.069972 -0.078270 0.149870
-0.066573 -0.089121 0.156035
-0.040611 -0.074791 0.146130
-0.050532 -0.075440 0.146822
-0.027679 -0.087923 0.136333
-0.034906 -0.081324 0.110847
-0.078404 -0.093999 0.169268
-0.080699 -0.105576 0.179270
-0.081961 -0.107401 0.184529
-0.081461 -0.111326 0.193342
-0.078093 -0.129947 0.202949
-0.076899 -0.119954 0.166679
-0.076445 -0.131242 0.168320
-0.075016 -0.143385 0.169126
-0.080839 -0.136818 0.188238
-0.078682 -0.151983 0.179843
-0.076970 -0.139926 0.202575
-0.068603 -0.170343 0.208318
-0.067084 -0.185195 0.207785
-0.079324 -0.158050 0.190478
-0.075802 -0.186891 0.195464
-0.072899 -0.191504 0.200210
-0.051557 -0.215001 0.211155
-0.062182 -0.218736 0.207677
-0.053961 -0.218512 0.210104
-0.042616 -0.231488 0.203697
-0.039788 -0.243062 0.195655
-0.053048 -0.228747 0.209913
-0.043800 -0.240939 0.204523
-0.054995 -0.231237 0.209307
-0.051566 -0.239192 0.210014
-0.052693 -0.236398 0.209784
-0.046104 -0.284149 0.208188
-0.046270 -0.286056 0.209265
-0.041615 -0.306360 0.203159
-0.046732 -0.320480 0.238185
-0.051661 -0.308614 0.227526
-0.053488 -0.315876 0.238326
-0.060206 -0.315206 0.241350
-0.060160 -0.308207 0.230769
-0.063309 -0.314591 0.239476
-0.074928 -0.314236 0.237953
-0.070443 -0.308568 0.231763
-0.078734 -0.306700 0.220461
-0.088591 -0.323532 0.219899
-0.081424 -0.320869 0.193939
-0.075319 -0.296590 0.211650
-0.082880 -0.305378 0.204302
-0.071999 -0.298796 0.215768
-0.062685 -0.298353 0.218689
-0.059954 -0.277432 0.212648
-0.066583 -0.283602 0.210943
-0.072769 -0.278558 0.205040
-0.074915 -0.287531 0.200893
-0.074913 -0.284965 0.193270
-0.073226 -0.292166 0.187775
-0.072724 -0.260221 0.196217
-0.064275 -0.230644 0.205023
-0.070645 -0.253707 0.199249
-0.068700 -0.223400 0.200878
-0.071757 -0.211876 0.197459
-0.070865 -0.214424 0.198569
-0.073146 -0.250252 0.187800
-0.072444 -0.266459 0.182616
-0.076572 -0.189229 0.189391
-0.074756 -0.208583 0.184203
-0.076165 -0.169348 0.178366
-0.076145 -0.197337 0.181895
-0.077844 -0.160573 0.179953
-0.069681 -0.165473 0.164997
-0.070710 -0.140534 0.160337
-0.070366 -0.195688 0.172272
-0.073164 -0.212331 0.179802
-0.061450 -0.147866 0.160900
-0.064477 -0.173846 0.164850
-0.055562 -0.145914 0.164901
-0.042196 -0.136872 0.178423
-0.038093 -0.153626 0.189395
-0.033718 -0.130266 0.191627
-0.047432 -0.156886 0.173546
-0.058341 -0.156343 0.165173
-0.057117 -0.179791 0.168367
-0.038594 -0.161194 0.189169
-0.043382 -0.175183 0.181343
-0.049841 -0.176737 0.173358
-0.044816 -0.188353 0.180272
-0.042168 -0.204945 0.185274
-0.063759 -0.200325 0.167492
-0.063751 -0.203431 0.168041
-0.054519 -0.213767 0.171441
-0.042966 -0.214415 0.183587
-0.039041 -0.231108 0.192587
-0.049805 -0.222794 0.176111
-0.041945 -0.245514 0.187536
-0.055103 -0.234098 0.172778
-0.055944 -0.222248 0.171254
-0.072017 -0.249236 0.181456
-0.067286 -0.248181 0.174802
-0.065670 -0.241782 0.173557
-0.049973 -0.258279 0.178723
-0.043598 -0.258387 0.185514
-0.040838 -0.269123 0.192091
-0.044255 -0.271812 0.186734
-0.043811 -0.276340 0.196001
-0.052261 -0.293155 0.186019
-0.061549 -0.292504 0.182477
-0.045734 -0.285087 0.196372
-0.048824 -0.304022 0.191989
-0.057930 -0.312642 0.185419
-0.051033 -0.317263 0.192579
-0.051112 -0.323636 -0.237432
-0.046480 -0.296305 -0.248733
-0.044754 -0.279875 -0.249816
-0.046865 -0.264953 -0.252358
-0.054889 -0.301225 -0.258034
-0.043944 -0.233875 -0.251784
-0.051776 -0.273879 -0.258226
-0.050789 -0.255673 -0.259652
-0.047402 -0.220310 -0.264912
-0.051401 -0.220863 -0.268423
-0.057820 -0.228632 -0.266284
-0.056862 -0.199810 -0.271656
-0.044461 -0.176853 -0.255069
-0.047213 -0.169201 -0.254915
-0.050052 -0.167948 -0.258761
-0.057583 -0.171455 -0.259274
-0.049314 -0.156464 -0.248869
-0.041606 -0.165463 -0.238683
-0.042134 -0.148476 -0.229329
-0.043680 -0.133608 -0.226444
-0.048586 -0.130777 -0.235535
-0.036493 -0.132527 -0.205647
-0.040160 -0.127732 -0.217149
-0.036564 -0.128946 -0.205938
-0.055701 -0.120210 -0.234692
-0.046765 -0.114082 -0.225194
-0.047918 -0.101013 -0.225571
-0.053906 -0.106606 -0.231484
-0.033966 -0.088520 -0.205044
-0.030090 -0.084696 -0.183293
-0.050624 -0.086248 -0.227634
-0.045262 -0.087081 -0.221172
-0.030930 -0.082514 -0.188562
-0.029554 -0.080269 -0.182016
-0.028610 -0.062146 -0.176176
-0.048718 -0.064643 -0.230512
-0.043515 -0.072716 -0.221854
-0.020743 -0.047188 -0.203955
-0.022787 -0.055506 -0.193166
-0.030699 -0.057231 -0.214668
-0.029065 -0.046051 -0.220502
-0.058887 -0.088004 -0.230643
-0.055221 -0.073972 -0.231835
-0.010747 -0.037687 -0.201184
-0.005175 -0.046936 -0.173843
0.000483 -0.037192 -0.193051
-0.002901 -0.025504 -0.211097
-0.009219 -0.025550 -0.213830
-0.032677 -0.032728 -0.227588
-0.025419 -0.040816 -0.219162
-0.016211 -0.025506 -0.219709
-0.027217 -0.032683 -0.223319
-0.006703 0.007839 -0.221717
-0.014254 -0.009667 -0.223721
-0.027190 -0.013454 -0.230864
-0.012258 0.014212 -0.224699
-0.014396 0.034704 -0.231669
-0.050701 -0.009843 -0.235332
-0.026698 0.019167 -0.231442
-0.032486 0.009863 -0.232372
-0.028980 0.031704 -0.229422
-0.058022 -0.037732 -0.234293
-0.050337 0.018886 -0.227548
-0.068673 -0.073543 -0.225362
-0.051279 0.031162 -0.220899
-0.045115 0.043597 -0.219349
-0.061090 -0.017638 -0.230178
-0.062704 -0.022031 -0.229198
-0.055411 -0.008448 -0.233838
-0.068297 -0.051150 -0.226554
-0.075292 -0.041686 -0.220214
-0.072424 -0.084545 -0.222122
-0.077671 -0.053458 -0.216497
-0.074664 -0.078547 -0.218555
-0.076405 -0.099115 -0.214763
-0.079210 -0.082119 -0.209600
-0.060323 -0.134579 -0.238072
-0.072992 -0.133615 -0.222188
-0.075008 -0.128700 -0.217703
-0.067721 -0.133682 -0.231283
-0.069789 -0.164841 -0.235601
-0.065271 -0.166230 -0.243054
-0.073226 -0.166276 -0.226815
-0.074321 -0.161820 -0.214433
-0.064653 -0.180010 -0.252426
-0.077112 -0.142986 -0.205897
-0.063240 -0.203511 -0.262548
-0.069127 -0.180792 -0.239481
-0.070494 -0.203799 -0.250307
-0.068911 -0.212883 -0.233106
-0.072405 -0.233834 -0.249579
-0.057207 -0.293903 -0.258969
-0.073864 -0.249536 -0.248288
-0.074217 -0.259396 -0.248366
-0.071711 -0.316280 -0.249159
-0.073376 -0.320122 -0.246810
-0.072643 -0.294182 -0.252343
-0.075510 -0.303944 -0.248840
-0.080563 -0.304368 -0.244384
-0.082349 -0.305454 -0.239729
-0.078593 -0.291177 -0.246204
-0.079759 -0.295382 -0.240880
-0.075146 -0.258782 -0.244293
-0.076889 -0.288344 -0.231191
-0.070782 -0.232085 -0.235861
-0.069742 -0.220131 -0.236193
-0.068128 -0.267268 -0.228719
-0.063263 -0.213824 -0.226562
-0.059500 -0.217622 -0.225490
-0.067079 -0.196235 -0.227598
-0.066617 -0.190952 -0.221306
-0.070522 -0.168034 -0.208247
-0.074781 -0.150701 -0.203922
-0.075468 -0.143348 -0.199315
-0.065309 -0.167566 -0.198253
-0.077016 -0.138770 -0.199336
-0.066498 -0.150319 -0.185652
-0.082601 -0.107683 -0.199318
-0.083356 -0.094793 -0.193742
-0.084106 -0.082742 -0.195784
-0.081102 -0.094005 -0.177919
-0.066403 -0.137982 -0.171000
-0.084399 -0.073848 -0.185862
-0.083181 -0.072235 -0.202469
-0.079248 -0.043532 -0.211778
-0.081124 -0.042574 -0.206340
-0.081987 -0.086180 -0.176424
-0.083393 -0.015772 -0.197001
-0.085977 -0.050804 -0.186961
-0.085969 -0.049703 -0.188336
-0.085927 -0.033797 -0.190910
-0.081495 -0.076938 -0.167655
-0.077542 0.008500 -0.199014
-0.080940 -0.012210 -0.202148
-0.068972 0.020119 -0.208209
-0.069656 0.021899 -0.205900
-0.086581 -0.030791 -0.177994
-0.086667 -0.018981 -0.160663
-0.083232 -0.000478 -0.188211
-0.084641 -0.007197 -0.180396
-0.079011 -0.071914 -0.156220
-0.080077 -0.052708 -0.150575
-0.082452 -0.048617 -0.156239
-0.071763 0.032342 -0.196163
-0.062335 0.040531 -0.205384
-0.062679 0.048498 -0.199824
-0.080875 0.012940 -0.178974
-0.080486 0.017513 -0.178705
-0.077117 0.043463 -0.178081
-0.074427 0.042290 -0.184790
-0.080481 0.035400 -0.171782
-0.081695 0.039700 -0.162775
-0.067600 0.053898 -0.190604
-0.052991 0.061560 -0.199238
-0.039005 0.052012 -0.218938
-0.077846 0.051496 -0.169990
-0.013105 0.053813 -0.238839
-0.009525 0.065402 -0.236567
0.009802 0.057811 -0.242578
0.014757 0.054022 -0.235058
0.015445 0.051713 -0.231964
0.007378 0.069625 -0.233849
0.002942 0.073614 -0.232255
0.016298 0.067646 -0.223665
0.017143 0.054711 -0.229864
0.023823 0.067573 -0.218822
0.027003 0.058806 -0.222431
0.022398 0.072755 -0.215498
0.002371 0.083980 -0.218019
0.009154 0.085950 -0.211351
0.039801 0.080365 -0.191139
-0.013276 0.077257 -0.219550
-0.015287 0.077493 -0.216689
-0.021771 0.074913 -0.213711
-0.017269 0.083999 -0.207529
-0.030805 0.072058 -0.208924
-0.032384 0.084926 -0.191831
-0.046196 0.076378 -0.189830
-0.040591 0.067443 -0.204836
-0.056414 0.073879 -0.182606
-0.068761 0.069142 -0.166923
-0.033549 0.087553 -0.186713
-0.072032 0.069220 -0.151000
-0.059379 0.080661 -0.162388
-0.053154 0.089123 -0.152685
-0.047824 0.087333 -0.168777
-0.072639 0.065952 -0.138215
-0.057276 0.086691 -0.142280
-0.038785 0.093091 -0.170300
-0.072514 0.061970 -0.125846
-0.081421 0.047772 -0.161684
-0.083713 0.040552 -0.150479
-0.072113 0.060951 -0.124540
-0.080439 0.028953 -0.141321
-0.082187 0.022464 -0.145776
-0.045566 0.097373 -0.142484
-0.042274 0.097723 -0.150255
-0.065527 0.071887 -0.110939
-0.053635 0.092598 -0.119850
-0.049226 0.095941 -0.125627
-0.064185 0.071470 -0.099173
-0.066949 0.057424 -0.104241
-0.063174 0.072392 -0.088344
-0.052901 0.094304 -0.097130
-0.063905 0.062587 -0.084692
-0.062307 0.056994 -0.075951
-0.061989 0.042405 -0.081881
-0.058008 0.071920 -0.051759
-0.060752 0.046018 -0.062134
-0.057926 0.069287 -0.049222
-0.058641 0.066080 -0.051345
-0.061805 0.033025 -0.079219
-0.061130 0.040574 -0.064483
-0.061899 0.026856 -0.065305
-0.061585 0.025177 -0.068822
-0.062250 0.029925 -0.094993
-0.067129 0.039407 -0.108908
-0.060407 0.003857 -0.061778
-0.060131 0.011317 -0.086677
-0.069406 0.020871 -0.116718
-0.064937 0.026790 -0.105458
-0.073337 0.026894 -0.125635
-0.079252 0.022582 -0.139175
-0.071006 0.032823 -0.120116
-0.081974 0.012509 -0.145897
-0.085034 -0.012710 -0.155426
-0.060548 0.014375 -0.096067
-0.064005 0.001204 -0.109109
-0.072131 -0.004854 -0.125347
-0.082204 -0.015653 -0.149511
-0.080638 -0.036452 -0.148620
-0.084535 -0.022627 -0.155595
-0.061559 -0.002144 -0.105810
-0.070973 -0.014045 -0.125497
-0.056388 -0.021214 -0.104553
-0.067093 -0.024356 -0.122830
-0.063284 -0.018238 -0.115893
-0.074172 -0.045777 -0.138635
-0.064616 -0.047879 -0.126673
-0.053017 -0.020218 -0.088515
-0.056237 -0.008389 -0.086788
-0.048172 -0.030827 -0.083801
-0.051894 -0.023592 -0.058606
-0.047136 -0.029951 -0.074982
-0.063962 -0.055539 -0.128357
-0.045042 -0.041089 -0.099053
-0.070047 -0.074019 -0.143239
-0.078311 -0.054705 -0.147428
-0.057970 -0.055083 -0.123006
-0.060346 -0.070434 -0.132413
-0.068630 -0.107571 -0.151911
-0.077408 -0.090332 -0.161594
-0.050568 -0.072106 -0.138136
-0.057380 -0.078606 -0.135158
-0.051620 -0.086113 -0.144158
-0.057424 -0.124267 -0.157209
-0.044744 -0.106760 -0.159739
-0.047264 -0.121727 -0.166047
-0.053679 -0.129541 -0.164175
-0.035190 -0.092463 -0.170436
-0.030018 -0.089803 -0.179607
-0.042490 -0.110150 -0.165301
-0.032208 -0.077210 -0.170264
-0.042190 -0.083792 -0.151705
-0.042893 -0.123290 -0.172080
-0.038697 -0.065860 -0.148145
-0.029175 -0.055535 -0.141943
-0.023635 -0.051024 -0.144228
-0.042936 -0.123505 -0.172180
-0.049652 -0.143447 -0.177473
-0.037736 -0.134800 -0.195359
-0.003974 -0.048059 -0.165685
-0.008025 -0.050564 -0.149166
-0.015041 -0.049561 -0.164393
-0.041654 -0.162172 -0.202463
-0.015250 -0.050045 -0.130357
-0.031453 -0.051635 -0.119444
-0.015410 -0.048557 -0.112688
-0.029404 -0.049305 -0.114213
-0.039276 -0.158243 -0.212734
-0.013349 -0.048520 -0.110459
-0.018066 -0.047047 -0.101042
-0.003104 -0.047553 -0.090737
-0.018919 -0.044571 -0.083457
-0.039964 -0.039644 -0.080173
-0.012368 -0.049466 -0.067398
-0.005043 -0.052140 -0.060045
-0.002282 -0.063505 -0.027631
-0.041245 -0.039949 -0.068813
-0.043323 -0.038214 -0.073918
-0.016997 -0.050437 -0.057849
-0.027309 -0.045133 -0.066194
-0.022256 -0.052003 -0.048435
-0.004459 -0.066325 -0.019653
-0.014390 -0.057132 -0.039670
-0.038010 -0.051221 -0.027164
-0.026748 -0.059011 -0.023045
-0.019451 -0.069528 -0.006137
-0.015234 -0.068823 -0.009490
-0.007007 -0.072686 -0.001609
-0.002363 -0.072786 -0.003342
-0.038995 -0.058041 -0.005345
-0.029201 -0.065267 0.000874
-0.019892 -0.070048 -0.004223
-0.028534 -0.068019 0.007625
-0.041862 -0.044689 -0.034608
-0.049664 -0.033752 -0.036715
-0.041144 -0.060099 0.011885
-0.054302 -0.045517 0.015256
-0.040798 -0.054788 -0.012713
-0.049822 -0.045293 -0.005338
-0.044183 -0.058893 0.021544
-0.050077 -0.052957 0.025081
-0.058292 -0.035380 0.007652
-0.057839 -0.036189 0.006832
-0.040892 -0.066655 0.037175
-0.031656 -0.072687 0.031313
-0.044819 -0.068229 0.072371
-0.059192 -0.029583 -0.002305
-0.055598 -0.034205 -0.013456
-0.057370 -0.024395 -0.022964
-0.066241 -0.006936 0.005140
-0.067737 -0.000301 0.010228
-0.061351 -0.011195 -0.035829
-0.061808 -0.008898 -0.037519
-0.063298 -0.003945 -0.026412
-0.057265 -0.011392 -0.058796
-0.062215 0.006469 -0.049812
-0.065303 0.013970 -0.027765
-0.066992 0.020922 0.002175
-0.065339 0.032088 -0.001202
-0.064904 0.023242 -0.018694
-0.065256 0.015231 -0.028299
-0.063976 0.029316 -0.023795
-0.063372 0.031561 -0.026496
-0.064314 0.040272 -0.002148
-0.067768 0.031134 0.016370
-0.062675 0.043517 -0.013683
-0.057387 0.064866 -0.037328
-0.058638 0.060447 0.000912
-0.059595 0.060247 0.007986
-0.056859 0.066096 -0.006829
-0.061722 0.049339 -0.009363
-0.061120 0.058153 0.014787
-0.063926 0.051721 0.021998
-0.057771 0.069898 0.030683
-0.057416 0.073610 0.048210
-0.064733 0.052090 0.037987
-0.047199 0.086184 0.024073
-0.049919 0.081893 0.011475
-0.048043 0.085557 0.033665
-0.043224 0.093445 -0.028969
-0.053496 0.079388 -0.028685
-0.039064 0.098767 0.053764
-0.042537 0.094443 0.059658
-0.057090 0.075685 0.086820
-0.048559 0.087098 0.081012
-0.041459 0.093012 0.015029
-0.052594 0.077705 0.000921
-0.037202 0.099502 -0.015440
-0.048196 0.083515 -0.000937
-0.035543 0.100547 0.042322
-0.026527 0.106234 0.047477
-0.033346 0.101329 0.025603
-0.041429 0.097876 0.085051
-0.044459 0.094872 0.098623
-0.046780 0.092255 0.101367
-0.044117 0.097622 0.104900
-0.037585 0.101073 0.072826
-0.032279 0.107097 0.096547
-0.041688 0.107374 0.122684
-0.037595 0.103286 0.100699
-0.040073 0.116595 0.143405
-0.042819 0.114492 0.148181
-0.047073 0.110613 0.159917
-0.027235 0.108573 0.077129
-0.029137 0.106784 0.073852
-0.028869 0.105287 0.055972
-0.032460 0.134552 0.176289
-0.035821 0.129063 0.170184
-0.034061 0.136429 0.186050
-0.029157 0.148655 0.190724
-0.030167 0.132840 0.159936
-0.025133 0.132696 0.144881
-0.020253 0.161564 0.189222
-0.023957 0.130238 0.135433
-0.015957 0.124600 0.115115
-0.018103 0.140947 0.153864
-0.006686 0.154521 0.167753
0.002807 0.133504 0.129308
-0.001348 0.177593 0.189439
-0.006005 0.146978 0.158215
-0.006335 0.143643 0.153660
0.009620 0.216546 0.218714
0.010781 0.181997 0.196324
0.027874 0.189207 0.220090
0.037072 0.180239 0.231946
0.006087 0.170262 0.183655
0.026534 0.184567 0.215717
0.045305 0.167458 0.241310
0.032681 0.171075 0.215956
0.007020 0.156702 0.170809
0.043231 0.157296 0.234263
0.046088 0.142845 0.233607
0.034893 0.167709 0.219133
0.049244 0.128866 0.232477
0.028544 0.171675 0.208109
0.035704 0.159498 0.213892
0.036300 0.153969 0.211680
0.019834 0.158772 0.186276
0.036681 0.144838 0.203448
0.043390 0.136362 0.212765
0.018304 0.154170 0.179648
0.026003 0.150312 0.185607
0.011938 0.139699 0.147071
0.034904 0.136936 0.189297
0.034124 0.129205 0.161118
0.032299 0.133912 0.171885
0.024657 0.125991 0.127067
0.012572 0.130310 0.126128
0.027866 0.125636 0.132646
0.042504 0.127344 0.195031
0.047831 0.119151 0.208602
0.046440 0.128316 0.218041
0.049153 0.125165 0.227187
0.044179 0.117301 0.170470
0.053359 0.102979 0.196180
0.051717 0.105894 0.194492
0.056634 0.096312 0.193828
0.043346 0.120301 0.182459
0.053438 0.107365 0.229971
0.056252 0.097286 0.202022
0.056099 0.096795 0.208388
0.050416 0.123313 0.234101
0.050319 0.117152 0.245766
0.048553 0.110152 0.263424
0.054114 0.084163 0.246101
0.046688 0.080420 0.262054
0.059227 0.085816 0.218029
0.059330 0.086430 0.212937
0.054689 0.078640 0.244946
0.066139 0.075205 0.197223
0.058883 0.091730 0.195897
0.058071 0.093532 0.193115
0.061766 0.086057 0.181874
0.043502 0.068048 0.263589
0.041789 0.087558 0.269434
0.025042 0.061945 0.276683
0.036287 0.057665 0.270083
0.036000 0.047419 0.270680
0.034728 0.037782 0.269677
0.054585 0.053375 0.256507
0.055182 0.067051 0.248109
0.054232 0.034165 0.259178
0.063753 0.038858 0.251717
0.066334 0.060574 0.227605
0.060018 0.050627 0.251373
0.069284 0.049840 0.228015
0.070609 0.066662 0.192082
0.057943 0.023044 0.256832
0.042562 0.010704 0.265673
0.051494 0.002062 0.260917
0.040436 -0.015683 0.259643
0.071099 0.050872 0.222385
0.066561 0.034367 0.248668
0.064771 0.026558 0.251395
0.076778 0.023068 0.229408
0.075185 0.020230 0.235634
0.059572 -0.016169 0.250502
0.054135 -0.006942 0.256241
0.070521 0.003915 0.243358
0.066836 -0.005483 0.245370
0.083239 0.016511 0.213975
0.078109 0.016844 0.228961
0.079232 0.007473 0.228502
0.081525 0.036443 0.195118
0.081104 0.033383 0.206629
0.083636 0.026946 0.199203
0.085368 0.019286 0.196459
0.076561 0.051755 0.189528
0.072219 0.056352 0.208828
0.060348 -0.018630 0.249412
0.047598 -0.043485 0.248274
0.080761 0.043917 0.177531
0.073560 0.061206 0.171667
0.065071 0.078988 0.161512
0.066731 0.075953 0.166353
0.071807 0.063101 0.153335
0.078419 0.047309 0.163016
0.088559 0.011101 0.171073
0.084016 0.025203 0.158648
0.087065 0.010633 0.195849
0.084868 0.027660 0.185322
0.069440 0.064970 0.135638
0.061259 0.085681 0.154220
0.066114 0.076202 0.151690
0.089707 -0.001727 0.189452
0.092473 -0.021094 0.184565
0.091441 -0.008946 0.170814
0.091379 -0.007550 0.171460
0.059529 0.085139 0.136238
0.050912 0.101045 0.144302
0.049866 0.105603 0.156818
0.046051 0.110025 0.150475
0.063182 0.075107 0.121590
0.062542 0.076684 0.123105
0.033450 0.122326 0.139781
0.055928 0.079626 0.102697
0.042781 0.098128 0.101608
0.037884 0.109771 0.117950
0.039624 0.099660 0.076935
0.054234 0.080429 0.098662
0.031118 0.116980 0.117994
0.033869 0.105323 0.089871
0.018915 0.122197 0.111847
0.056208 0.076500 0.070798
0.041782 0.096080 0.072847
0.004299 0.129224 0.118390
-0.012596 0.122165 0.106832
-0.008152 0.117945 0.086082
0.007658 0.118266 0.087058
-0.003488 0.117146 0.074481
0.015603 0.114476 0.073837
0.030154 0.105565 0.070565
-0.016168 0.113561 0.067081
0.007059 0.115724 0.069562
-0.013301 0.112608 0.042421
0.023803 0.108133 0.049809
0.015929 0.112944 0.056644
-0.007992 0.113116 0.020746
0.012533 0.112166 0.032633
-0.010735 0.112398 0.016133
-0.022505 0.107714 0.017936
0.006302 0.113265 0.004427
-0.020517 0.109378 -0.008174
-0.031133 0.103768 -0.018103
-0.004531 0.114544 -0.015879
-0.000054 0.115587 -0.014446
-0.009782 0.113816 -0.026996
-0.018362 0.111399 -0.019234
0.001598 0.114695 -0.002976
0.006787 0.113663 -0.008604
-0.022186 0.111529 -0.043317
-0.010060 0.115846 -0.049080
-0.020125 0.114647 -0.066539
-0.040058 0.100916 -0.046195
-0.048820 0.092091 -0.057338
-0.048866 0.089682 -0.048832
-0.057962 0.077129 -0.054661
-0.053269 0.084838 -0.056053
-0.050072 0.093255 -0.071670
-0.033320 0.109557 -0.102458
-0.042216 0.102368 -0.075895
-0.031904 0.109198 -0.078181
-0.038978 0.104927 -0.114470
-0.007964 0.118495 -0.072887
-0.014383 0.116919 -0.099442
-0.028909 0.109521 -0.122680
-0.014415 0.115800 -0.117770
-0.016023 0.114233 -0.130763
-0.025942 0.108641 -0.139701
-0.002978 0.116949 -0.126330
-0.001976 0.117488 -0.122639
0.000463 0.119414 -0.106762
0.001992 0.117183 -0.043803
0.005689 0.118995 -0.087820
0.011771 0.114929 -0.044459
0.007755 0.114198 -0.024995
0.016296 0.116272 -0.083361
0.022831 0.113452 -0.062108
0.028673 0.104233 -0.004928
0.020743 0.108597 0.011363
0.021900 0.107968 0.013639
0.024295 0.112176 -0.058086
0.033825 0.103481 -0.034759
0.027238 0.104881 0.017035
0.027256 0.105704 0.045492
0.040302 0.096093 0.036314
0.042794 0.093527 0.049805
0.042946 0.092417 0.034072
0.052261 0.080689 0.047565
0.059992 0.065338 0.040182
0.063989 0.054421 0.039941
0.036691 0.097946 0.002681
0.047163 0.084616 0.001511
0.052985 0.078425 0.024367
0.061853 0.057088 0.020368
0.054886 0.075258 0.015654
0.052095 0.078714 -0.002246
0.041718 0.094580 -0.021682
0.065758 0.042201 0.011416
0.062161 0.052034 0.007659
0.044198 0.091386 -0.021479
0.039211 0.099470 -0.034551
0.060458 0.055332 -0.016748
0.057191 0.068952 -0.026635
0.036252 0.102965 -0.042426
0.041493 0.097827 -0.041046
0.048965 0.090577 -0.052579
0.037871 0.105263 -0.077175
0.041673 0.102411 -0.070325
0.026399 0.112682 -0.094439
0.062002 0.043735 -0.020546
0.056663 0.069483 -0.037932
0.064243 0.019764 -0.037258
0.063312 0.031588 -0.027089
0.047590 0.095293 -0.063010
0.058964 0.077051 -0.061720
0.058745 0.067507 -0.053735
0.059883 0.049148 -0.042584
0.060267 0.073365 -0.064801
0.060996 0.040976 -0.059866
0.062677 0.029153 -0.048055
0.060822 0.052667 -0.056652
0.053224 0.087722 -0.069208
0.055069 0.085342 -0.071597
0.040961 0.103873 -0.093565
0.063951 0.070076 -0.085725
0.061900 0.075452 -0.093803
0.057723 0.083561 -0.087188
0.061263 0.049489 -0.071859
0.064881 0.061084 -0.091853
0.061922 0.020116 -0.066375
0.059398 0.003349 -0.070327
0.061078 0.039707 -0.073314
0.063540 0.044870 -0.092680
0.059843 0.008469 -0.074949
0.061579 0.021849 -0.083112
0.059543 0.007037 -0.090554
0.064582 0.040056 -0.100064
0.062087 0.000891 -0.105502
0.064957 0.020628 -0.105728
0.064798 0.018929 -0.105396
0.065557 -0.010043 -0.116741
0.068991 -0.015992 -0.123254
0.068510 0.054152 -0.111068
0.075718 -0.018437 -0.135557
0.078892 -0.023020 -0.143360
0.080333 -0.045851 -0.148981
0.080511 0.021206 -0.142079
0.071538 0.023351 -0.121729
0.077959 0.018663 -0.136428
0.082213 -0.002921 -0.147950
0.083157 0.006520 -0.149217
0.078843 0.034408 -0.137305
0.076399 0.034178 -0.132087
0.072790 0.059000 -0.125682
0.082332 -0.048776 -0.155925
0.086325 -0.039464 -0.165333
0.080607 -0.064046 -0.157480
0.079700 0.019463 -0.182640
0.080278 0.019261 -0.178988
0.085352 -0.007273 -0.162132
0.086543 -0.026946 -0.175022
0.086428 -0.019266 -0.170758
0.084100 -0.004442 -0.174344
0.082266 0.004355 -0.182028
0.083490 0.039360 -0.152140
0.080644 0.029590 -0.172632
0.081458 0.031151 -0.167020
0.078038 0.054447 -0.136708
0.072683 0.066008 -0.138605
0.071881 0.069426 -0.151041
0.067371 0.071183 -0.122543
0.068277 0.066690 -0.112785
0.066321 0.076195 -0.136407
0.058938 0.087426 -0.118427
0.060862 0.081720 -0.111903
0.068971 0.073275 -0.152102
0.050198 0.096596 -0.111209
0.054088 0.092215 -0.119630
0.041969 0.102553 -0.119068
0.062134 0.082461 -0.139339
0.045621 0.098059 -0.135950
0.064453 0.077392 -0.159031
0.037124 0.105108 -0.128173
0.015710 0.114553 -0.128042
0.023471 0.112801 -0.114307
0.008489 0.115571 -0.131110
0.021759 0.108885 -0.151194
0.029271 0.105198 -0.149479
-0.003057 0.114288 -0.142509
0.042575 0.096421 -0.154201
-0.022278 0.107660 -0.154417
-0.030642 0.092124 -0.182084
0.013421 0.109193 -0.155965
0.025949 0.100824 -0.168103
-0.013225 0.101393 -0.180614
-0.011225 0.104554 -0.173071
0.008367 0.107878 -0.163707
-0.001339 0.091671 -0.204877
0.009928 0.089712 -0.202790
0.017236 0.100971 -0.177445
0.022330 0.092635 -0.189040
0.029104 0.089746 -0.187610
0.061019 0.080321 -0.159977
0.060588 0.077526 -0.167550
0.056858 0.074619 -0.180311
0.066845 0.072826 -0.164445
0.038920 0.071683 -0.201813
0.076594 0.056231 -0.168796
0.044627 0.060897 -0.207816
0.074296 0.052817 -0.176637
0.058174 0.057036 -0.198383
0.072671 0.042439 -0.188537
0.071759 0.048389 -0.186451
0.037796 0.057118 -0.216554
0.071258 0.038043 -0.193920
0.059628 0.048324 -0.203252
0.046517 0.033308 -0.223679
0.052991 0.028391 -0.220871
0.048657 0.046516 -0.215294
0.035174 0.029655 -0.229282
0.018355 0.034569 -0.231725
0.069825 0.007430 -0.214240
0.072840 0.022636 -0.199657
0.077615 -0.004951 -0.206040
0.077089 0.005460 -0.201698
0.004874 0.021586 -0.223619
0.014732 0.013205 -0.225657
0.024580 0.027161 -0.230557
0.005913 -0.005705 -0.220102
0.026251 0.007604 -0.230545
0.040908 0.011842 -0.231784
0.051686 0.005400 -0.231664
0.073407 -0.010466 -0.218383
0.056816 -0.001945 -0.230093
0.036229 -0.004577 -0.234763
0.021616 -0.008945 -0.227799
0.022368 -0.014745 -0.228189
0.060019 -0.033825 -0.232568
0.067455 -0.018533 -0.224816
0.042458 -0.020412 -0.236284
0.006461 -0.030527 -0.208594
0.009516 -0.046404 -0.176955
0.011741 -0.022387 -0.218193
0.016853 -0.047487 -0.184331
0.034482 -0.019530 -0.233530
0.027056 -0.028475 -0.225061
0.027422 -0.061305 -0.201500
0.018311 -0.049871 -0.185206
0.024812 -0.058558 -0.179914
0.032975 -0.045174 -0.223971
0.040323 -0.037667 -0.232292
0.025265 -0.047445 -0.216094
0.030742 -0.052640 -0.217720
0.029513 -0.074530 -0.181863
0.033646 -0.077090 -0.208361
0.031058 -0.087679 -0.189496
0.050481 -0.066582 -0.232128
0.039251 -0.064422 -0.218958
0.048798 -0.081356 -0.226003
0.031397 -0.095921 -0.192774
0.036977 -0.093369 -0.210948
0.058160 -0.049343 -0.234189
0.036063 -0.130783 -0.203792
0.049835 -0.090835 -0.227066
0.040874 -0.108906 -0.215838
0.037976 -0.124851 -0.212127
0.039879 -0.121032 -0.215631
0.049959 -0.110084 -0.229503
0.037787 -0.150315 -0.220828
0.043687 -0.145818 -0.231526
0.045374 -0.149694 -0.237230
0.056254 -0.101691 -0.231107
0.059650 -0.094157 -0.231019
0.060071 -0.105850 -0.231982
0.061887 -0.122142 -0.233092
0.069898 -0.052532 -0.225117
0.070185 -0.026186 -0.223177
0.073121 -0.031170 -0.221116
0.076759 -0.024604 -0.213940
0.081018 -0.037298 -0.205313
0.082708 -0.026856 -0.199661
0.082402 -0.035492 -0.201206
0.086626 -0.042825 -0.180705
0.077071 -0.048336 -0.218464
0.079247 -0.068742 -0.211056
0.079193 -0.050091 -0.212764
0.082842 -0.050913 -0.202679
0.086412 -0.055500 -0.175529
0.084939 -0.063182 -0.188637
0.084512 -0.074345 -0.178192
0.078549 -0.087202 -0.211202
0.081664 -0.102041 -0.205750
0.083839 -0.086039 -0.192177
0.083276 -0.095353 -0.192819
0.081906 -0.082900 -0.173706
0.080858 -0.092201 -0.176032
0.074125 -0.123972 -0.177268
0.074473 -0.106871 -0.218224
0.080788 -0.121503 -0.199822
0.076901 -0.117831 -0.213991
0.073706 -0.132218 -0.184993
0.066266 -0.143308 -0.178660
0.080463 -0.123732 -0.200464
0.075401 -0.135695 -0.193091
0.069587 -0.154199 -0.194294
0.060875 -0.158506 -0.186754
0.077304 -0.141419 -0.205021
0.073224 -0.162959 -0.211293
0.075126 -0.157511 -0.218542
0.073725 -0.135517 -0.221415
0.068526 -0.184016 -0.221897
0.073051 -0.167956 -0.226241
0.066791 -0.138526 -0.233699
0.062120 -0.142235 -0.239406
0.070489 -0.172805 -0.235508
0.069302 -0.169170 -0.237602
0.068175 -0.193657 -0.229402
0.068089 -0.176199 -0.241511
0.051178 -0.146953 -0.245456
0.061406 -0.156402 -0.246159
0.047730 -0.173330 -0.261788
0.055835 -0.165193 -0.256629
0.042269 -0.186425 -0.255679
0.043074 -0.190200 -0.261305
0.063997 -0.173600 -0.247917
0.044382 -0.197233 -0.267205
0.049368 -0.197122 -0.272928
0.049764 -0.215538 -0.268493
0.054231 -0.217729 -0.270062
0.061648 -0.203085 -0.265581
0.065595 -0.197317 -0.260985
0.063345 -0.251942 -0.260949
0.065984 -0.226873 -0.258330
0.067540 -0.254306 -0.257731
0.067894 -0.231966 -0.256215
0.066568 -0.181170 -0.249055
0.070774 -0.195640 -0.237783
0.070459 -0.195155 -0.236325
0.072746 -0.215135 -0.242049
0.061158 -0.218474 -0.225730
0.069886 -0.245894 -0.232817
0.073358 -0.249266 -0.240385
0.070758 -0.254759 -0.253600
0.075555 -0.278616 -0.248752
0.081537 -0.327595 -0.189268
0.044073 -0.310021 -0.229496
-0.045415 -0.321637 0.233265
-0.071240 -0.326569 0.245042
-0.071701 -0.326714 0.246578
-0.059509 -0.323717 0.244514
-0.046914 -0.310487 -0.231442
-0.044266 -0.308185 0.207140
-0.082740 -0.322870 -0.187328
-0.082072 -0.327362 -0.187040
0.059845 -0.324458 0.244210
-0.016654 0.166793 0.378118
-0.000226 0.144814 0.393972
-0.006558 0.148522 0.379653
-0.021690 0.160651 0.367944
-0.007298 0.155528 0.352140
-0.021619 0.159343 0.355287
-0.008814 0.156442 0.347368
-0.010463 0.157110 0.343330
-0.026280 0.163004 0.350858
-0.008387 0.156848 0.338496
-0.006744 0.139832 0.306230
-0.008832 0.143636 0.310732
-0.015207 0.149069 0.317155
-0.020984 0.153694 0.327433
-0.018376 0.144068 0.305920
-0.023366 0.156533 0.326099
-0.033037 0.164814 0.296425
-0.043030 0.179369 0.273462
-0.038368 0.172650 0.321684
-0.041868 0.175734 0.314646
-0.043906 0.186794 0.270467
-0.041489 0.201294 0.264095
-0.040107 0.177870 0.293770
-0.042540 0.189129 0.283081
-0.042846 0.207922 0.269889
-0.039074 0.209708 0.257301
-0.036582 0.220051 0.259263
-0.027176 0.229831 0.248461
-0.044346 0.224834 0.271629
-0.023037 0.245081 0.249917
-0.037107 0.242496 0.261870
-0.036237 0.242436 0.260783
-0.006609 0.244554 0.242195
0.003165 0.245719 0.242213
0.009559 0.254617 0.249537
0.008004 0.266753 0.261435
0.004080 0.256548 0.250850
0.018589 0.251439 0.250771
0.016377 0.244354 0.245541
0.024560 0.238723 0.249266
0.040029 0.220870 0.264209
0.033578 0.219480 0.253693
0.040857 0.210468 0.261272
0.044665 0.203106 0.276290
0.042631 0.181253 0.275600
0.048126 0.205770 0.285330
0.034652 0.167620 0.294644
0.038016 0.163000 0.284611
0.045079 0.186407 0.295653
0.045352 0.196700 0.282899
0.037339 0.173759 0.296167
0.043952 0.183468 0.297651
0.025835 0.160105 0.307776
0.022879 0.156084 0.309217
0.028762 0.164282 0.313074
0.019396 0.144338 0.302234
0.014695 0.145511 0.312323
0.002330 0.148369 0.312667
0.005122 0.154234 0.326474
0.014619 0.151007 0.320207
0.012388 0.154759 0.331811
0.044396 0.178064 0.321687
0.018268 0.158016 0.360063
0.035737 0.169403 0.344818
0.011875 0.151709 0.375509
0.013459 0.151251 0.397600
0.002227 0.146404 0.407262
0.020755 0.157638 0.396691
0.001593 0.151905 0.418402
0.009619 0.031577 -0.231792
0.008547 0.019200 -0.243167
0.013840 0.028275 -0.248440
0.005561 0.014731 -0.244107
0.002664 0.008563 -0.244898
0.004342 -0.010225 -0.250811
0.011165 -0.000399 -0.252223
0.004062 -0.021317 -0.252838
0.010758 0.035647 -0.254889
0.011127 0.007502 -0.266043
