-0.021671 0.065886 0.262033
-0.026711 0.042976 0.248949
-0.029468 0.049530 0.249812
-0.030076 0.091280 0.266715
-0.035916 0.026786 0.238953
-0.033917 0.024381 0.239138
-0.042142 0.014046 0.232544
-0.040632 0.076094 0.251158
-0.046254 0.056678 0.239236
-0.045984 0.096872 0.243050
-0.045416 0.074114 0.244066
-0.040801 0.116057 0.254660
-0.056971 0.050035 0.227279
-0.055196 0.012060 0.224225
-0.046218 0.100933 0.242770
-0.045700 0.120443 0.236479
-0.048954 0.078005 0.238163
-0.045585 0.131507 0.225653
-0.042820 0.143063 0.228996
-0.052623 0.109244 0.213879
-0.048753 0.094324 0.237756
-0.051336 0.100130 0.223506
-0.049048 0.120433 0.207654
-0.029947 0.164245 0.202472
-0.031414 0.166174 0.209647
-0.032749 0.151293 0.191508
-0.032732 0.153209 0.195377
-0.020792 0.178875 0.204820
-0.013323 0.191583 0.211197
-0.019489 0.168356 0.190232
-0.009487 0.194566 0.213481
0.002368 0.189429 0.204809
-0.005279 0.176870 0.188870
0.029671 0.168482 0.211734
0.003104 0.175703 0.187217
0.020270 0.170233 0.195438
0.034591 0.159209 0.212754
0.037784 0.153194 0.213199
0.039478 0.152800 0.225651
0.016028 0.170269 0.190045
0.037404 0.147964 0.204520
0.008459 0.167891 0.179118
0.044792 0.129160 0.225482
0.040036 0.143494 0.205319
0.045226 0.127797 0.209592
0.033187 0.142940 0.183689
0.044813 0.105246 0.241083
0.035411 0.108298 0.262018
0.045257 0.128375 0.199616
0.050099 0.111069 0.217606
0.040806 0.131253 0.174987
0.053259 0.109845 0.190173
0.054275 0.106306 0.178814
0.055298 0.104492 0.180502
0.053509 0.093084 0.218060
0.056013 0.079915 0.221854
0.059504 0.092325 0.197601
0.055868 0.086136 0.216618
0.066799 0.073198 0.196079
0.047664 0.119443 0.170974
0.051200 0.112358 0.173777
0.064330 0.084424 0.177550
0.071304 0.067268 0.175925
0.066001 0.080865 0.169151
0.063148 0.087654 0.168118
0.040491 0.129765 0.163422
0.037656 0.132706 0.160311
0.047597 0.117750 0.157859
0.033333 0.137417 0.159302
0.052013 0.108250 0.140200
0.048057 0.116039 0.150097
0.010329 0.155605 0.161592
0.019568 0.145997 0.146456
0.003726 0.149323 0.147272
-0.013250 0.161217 0.173468
-0.018872 0.151409 0.159082
-0.036709 0.141449 0.186988
-0.032895 0.146526 0.184668
-0.011239 0.145437 0.138014
-0.031952 0.143423 0.175317
-0.032240 0.143720 0.178033
-0.029642 0.142238 0.159559
-0.034048 0.138925 0.163690
-0.027391 0.138304 0.139499
-0.046212 0.129810 0.192527
-0.049977 0.120719 0.194670
-0.054290 0.109555 0.194640
-0.045460 0.123533 0.154050
-0.060699 0.096048 0.180030
-0.054240 0.109020 0.173015
-0.064271 0.084888 0.193485
-0.060140 0.087554 0.206844
-0.063992 0.089181 0.159891
-0.066616 0.081587 0.180613
-0.062902 0.070037 0.214280
-0.063243 0.065032 0.215566
-0.054062 0.062591 0.230140
-0.057141 0.054770 0.226641
-0.075887 0.047287 0.193395
-0.073186 0.062489 0.187635
-0.072172 0.031786 0.207321
-0.075848 0.041824 0.196491
-0.076539 0.026925 0.199247
-0.064058 0.029446 0.217113
-0.062510 0.020180 0.217730
-0.077139 0.004236 0.202116
-0.080221 -0.001815 0.198826
-0.080879 0.025137 0.189590
-0.069984 -0.015405 0.209294
-0.064832 -0.013659 0.214360
-0.082721 -0.009662 0.195468
-0.085224 0.021401 0.177612
-0.084099 0.006738 0.186860
-0.086031 -0.012533 0.182596
-0.081726 0.036067 0.178214
-0.083652 0.026568 0.172543
-0.084608 0.022285 0.170933
-0.072174 0.059025 0.141955
-0.065888 0.082873 0.155836
-0.087608 -0.026281 0.170336
-0.063320 0.085145 0.142217
-0.059999 0.096237 0.147819
-0.049001 0.116692 0.148644
-0.083946 -0.043401 0.176001
-0.085186 -0.040173 0.172384
-0.080177 -0.061575 0.174901
-0.042706 0.125634 0.142797
-0.039768 0.128612 0.145546
-0.077306 -0.075610 0.169808
-0.074835 -0.085993 0.178538
-0.071352 -0.106202 0.177573
-0.085507 -0.037045 0.160376
-0.084253 -0.020446 0.157393
-0.075957 -0.069882 0.155318
-0.075064 -0.065152 0.150383
-0.070085 -0.113240 0.167938
-0.083881 -0.003145 0.153322
-0.082132 0.001511 0.147134
-0.078056 0.004525 0.134647
-0.078276 0.031470 0.144525
-0.083370 0.020937 0.156861
-0.068129 -0.101774 0.152658
-0.070482 -0.086109 0.150998
-0.068348 -0.140409 0.175249
-0.070756 -0.179288 0.169926
-0.067834 -0.143404 0.163271
-0.067839 -0.118787 0.159746
-0.068842 -0.157635 0.166443
-0.066642 -0.158733 0.158790
-0.063013 -0.157843 0.151776
-0.066959 -0.199878 0.163149
-0.066222 -0.180459 0.157186
-0.063286 -0.192531 0.155941
-0.057800 -0.177690 0.150514
-0.060780 -0.212442 0.157931
-0.048022 -0.185312 0.155687
-0.050907 -0.207182 0.156330
-0.046753 -0.170988 0.156005
-0.042378 -0.169024 0.161839
-0.042692 -0.155624 0.160287
-0.058432 -0.157507 0.147990
-0.039042 -0.161427 0.166177
-0.039165 -0.146756 0.162981
-0.049673 -0.134128 0.146857
-0.046043 -0.112874 0.145299
-0.053161 -0.125778 0.144138
-0.034858 -0.125166 0.163192
-0.039713 -0.105900 0.151365
-0.054164 -0.117293 0.142162
-0.066351 -0.103465 0.147833
-0.039668 -0.099985 0.149885
-0.051400 -0.097941 0.139521
-0.033981 -0.083052 0.155138
-0.061470 -0.094939 0.141331
-0.051305 -0.087454 0.139796
-0.068650 -0.071685 0.145013
-0.029597 -0.078031 0.153999
-0.053619 -0.067195 0.137164
-0.048875 -0.070094 0.138552
-0.010497 -0.078553 0.147883
-0.028963 -0.078089 0.128310
-0.070029 -0.065567 0.144489
-0.054285 -0.061462 0.134818
-0.076395 -0.037754 0.144359
-0.002334 -0.081860 0.142333
-0.002074 -0.086880 0.126755
-0.010078 -0.083613 0.132648
0.000304 -0.090270 0.108666
-0.043159 -0.069803 0.110237
-0.036080 -0.073738 0.120541
-0.000280 -0.090271 0.108660
0.003108 -0.090466 0.083094
-0.017305 -0.085200 0.118506
-0.042680 -0.071293 0.101711
-0.026129 -0.082201 0.116276
-0.005915 -0.090672 0.086043
-0.009236 -0.090358 0.091450
-0.017785 -0.088421 0.094029
0.001860 -0.086568 0.046116
-0.049762 -0.063968 0.099598
-0.050718 -0.062018 0.104797
-0.058701 -0.050675 0.116123
-0.044619 -0.070169 0.083668
-0.044008 -0.070687 0.083647
-0.048711 -0.065433 0.086271
-0.048430 -0.064981 0.062460
-0.016297 -0.086454 0.053980
-0.036996 -0.075995 0.067580
-0.030766 -0.080813 0.066561
-0.004910 -0.079584 0.021796
0.003024 -0.072848 -0.000076
-0.022792 -0.083316 0.047672
-0.018290 -0.075900 0.020830
-0.007944 -0.086006 0.045659
-0.032912 -0.078212 0.053303
-0.034793 -0.074229 0.045779
-0.033632 -0.071993 0.036311
-0.003800 -0.068639 -0.012636
0.003721 -0.053082 -0.044701
-0.018558 -0.069335 0.001272
-0.021362 -0.071559 0.009471
-0.010593 -0.070853 -0.001018
-0.039661 -0.065986 0.032378
-0.027093 -0.063410 -0.001948
-0.028592 -0.065846 0.006907
0.002953 -0.042848 -0.068669
-0.010271 -0.061834 -0.025584
-0.000245 -0.039124 -0.081029
-0.014904 -0.044219 -0.059276
-0.008684 -0.037087 -0.087454
-0.002720 -0.033020 -0.119421
-0.031489 -0.050005 -0.023690
-0.039630 -0.051662 -0.005797
-0.014808 -0.042115 -0.063605
-0.034054 -0.046224 -0.026994
-0.011866 -0.036275 -0.085697
-0.028838 -0.037278 -0.054930
-0.022536 -0.025604 -0.109834
-0.012464 -0.030777 -0.116525
-0.036395 -0.035108 -0.045295
-0.036658 -0.030992 -0.051960
-0.008938 -0.031071 -0.142647
-0.043601 -0.037604 -0.023243
-0.046181 -0.027799 -0.035173
-0.056376 -0.034548 0.007913
-0.052346 -0.037783 0.002464
-0.045236 -0.048615 0.002731
-0.058123 -0.013664 -0.018147
-0.054926 -0.026647 -0.010353
-0.044191 -0.023818 -0.048405
-0.026694 -0.025103 -0.094723
-0.053884 -0.013685 -0.031704
-0.048602 -0.017642 -0.043613
-0.045700 -0.012916 -0.059374
-0.015675 -0.030195 -0.148419
-0.027407 -0.020889 -0.110365
-0.025671 -0.022694 -0.111691
-0.050389 -0.005679 -0.055820
-0.039536 -0.010273 -0.088662
-0.057195 0.022955 -0.070320
-0.053134 0.006276 -0.064258
-0.042456 -0.000788 -0.108234
-0.037790 -0.007891 -0.110270
-0.057214 0.019053 -0.064078
-0.060697 0.026130 -0.053181
-0.061097 0.004462 -0.028028
-0.058551 -0.005403 -0.028682
-0.054345 0.022400 -0.086031
-0.054908 0.028640 -0.105978
-0.048861 0.010420 -0.097428
-0.051061 0.019069 -0.107700
-0.060780 0.034400 -0.059109
-0.033291 -0.016455 -0.121893
-0.059540 0.045963 -0.084634
-0.059561 0.047240 -0.082495
-0.057072 0.034497 -0.104064
-0.062073 0.048037 -0.043958
-0.060171 0.055519 -0.067458
-0.058312 0.065371 -0.079098
-0.053401 0.084968 -0.070283
-0.058388 0.064745 -0.065678
-0.054289 0.080969 -0.069483
-0.061279 0.053172 -0.123990
-0.063790 0.029370 -0.036042
-0.065261 0.021787 -0.021270
-0.062481 0.023048 -0.039409
-0.058823 0.034861 -0.133058
-0.056924 0.028734 -0.132086
-0.065282 0.006629 -0.008192
-0.062672 -0.001352 -0.014512
-0.066418 -0.009618 0.009443
-0.061540 -0.010022 -0.011122
-0.061066 -0.015784 -0.004098
-0.052361 0.016726 -0.130848
-0.041295 -0.007944 -0.129478
-0.064761 -0.021207 0.020739
-0.061151 -0.026660 0.013363
-0.058869 -0.041273 0.034556
-0.060006 -0.040963 0.038261
-0.054053 -0.054698 0.050709
-0.046420 -0.064135 0.045197
-0.059127 -0.049068 0.067050
-0.060608 -0.046174 0.060162
-0.070044 -0.025513 0.087485
-0.064492 -0.039564 0.089909
-0.062582 -0.044564 0.094209
-0.064113 -0.040782 0.107883
-0.065058 -0.034051 0.049634
-0.068675 -0.019462 0.038304
-0.071858 -0.020564 0.077947
-0.068425 -0.028232 0.064911
-0.064640 -0.039998 0.127701
-0.070712 -0.035285 0.134663
-0.076494 -0.010180 0.135185
-0.077998 -0.013792 0.139190
-0.072403 -0.014866 0.102594
-0.071660 -0.020714 0.098516
-0.072827 -0.013559 0.119536
-0.074317 -0.001808 0.112531
-0.071666 -0.021159 0.086429
-0.072292 -0.014996 0.091079
-0.071564 0.004116 0.027857
-0.072412 0.005539 0.032019
-0.067725 0.013706 -0.001855
-0.068955 0.017119 0.002246
-0.068293 0.028435 -0.010003
-0.074239 -0.002634 0.065343
-0.075660 0.011019 0.071324
-0.073480 0.002170 0.043440
-0.074745 0.010320 0.049276
-0.073636 -0.001567 0.049204
-0.074770 0.016057 0.095248
-0.073528 0.027622 0.098386
-0.074830 0.022832 0.110667
-0.072537 0.037970 0.091382
-0.073055 0.033215 0.091300
-0.069746 0.031032 0.000545
-0.066033 0.042770 -0.018341
-0.073470 0.027016 0.026436
-0.072892 0.036273 0.044900
-0.067982 0.051704 0.006172
-0.068328 0.051370 0.009868
-0.071705 0.042600 0.040676
-0.070878 0.047249 0.040103
-0.075931 0.020680 0.064426
-0.071982 0.043475 0.065725
-0.069513 0.053604 0.065653
-0.068908 0.055299 0.036772
-0.071085 0.046874 0.085330
-0.064109 0.064278 0.016462
-0.064544 0.061166 0.002569
-0.065090 0.067999 0.053565
-0.064121 0.068448 0.042523
-0.061488 0.064435 -0.022635
-0.064342 0.061091 -0.002594
-0.058181 0.079750 0.007598
-0.060350 0.063485 -0.037256
-0.061473 0.059537 -0.037876
-0.055529 0.078646 -0.058240
-0.057356 0.072589 -0.054505
-0.052615 0.090462 0.030520
-0.049404 0.095827 0.018464
-0.048845 0.094509 -0.022241
-0.049570 0.095406 0.015187
-0.052430 0.090279 -0.000762
-0.050164 0.091565 -0.051185
-0.044364 0.100063 -0.051031
-0.038926 0.108355 -0.034298
-0.049544 0.097667 0.043922
-0.056449 0.085528 0.040536
-0.036964 0.110717 -0.030470
-0.046885 0.096805 -0.061596
-0.036275 0.112198 -0.045719
-0.039665 0.110548 -0.071706
-0.053970 0.091952 -0.098648
-0.057236 0.076203 -0.096022
-0.055831 0.086986 -0.099608
-0.036454 0.111203 -0.005524
-0.030098 0.117653 -0.001321
-0.038335 0.109384 0.007424
-0.061211 0.082019 -0.127300
-0.063023 0.067352 -0.135202
-0.062566 0.074627 -0.132843
-0.048850 0.100079 -0.096099
-0.041133 0.110007 -0.081222
-0.055535 0.095731 -0.125605
-0.051355 0.104685 -0.131982
-0.051106 0.099082 -0.109656
-0.049708 0.103738 -0.118230
-0.064011 0.065282 -0.140615
-0.041366 0.114245 -0.104771
-0.025527 0.124735 -0.069972
-0.043015 0.117377 -0.135696
-0.036018 0.118837 -0.101246
-0.053169 0.106050 -0.151559
-0.049715 0.110961 -0.145659
-0.067008 0.081358 -0.161789
-0.031264 0.126048 -0.123765
-0.046525 0.115509 -0.148905
-0.065729 0.056633 -0.144052
-0.068878 0.061194 -0.159273
-0.062631 0.047244 -0.138768
-0.062899 0.094064 -0.182153
-0.067332 0.085468 -0.182462
-0.060188 0.024573 -0.140681
-0.068168 0.072565 -0.162414
-0.068163 0.080339 -0.168849
-0.070375 0.048135 -0.157381
-0.076911 0.046246 -0.172731
-0.074728 0.057709 -0.174052
-0.062734 0.015060 -0.147481
-0.068674 0.021832 -0.151165
-0.066079 0.016521 -0.149799
-0.081123 0.034908 -0.176944
-0.078590 0.022058 -0.164487
-0.077622 0.063139 -0.212852
-0.075735 0.064778 -0.184521
-0.075206 0.066531 -0.185601
-0.074967 0.068281 -0.193694
-0.084565 0.034979 -0.198897
-0.084607 0.034505 -0.196954
-0.080736 0.050369 -0.191697
-0.078232 0.061019 -0.214836
-0.085443 0.005051 -0.178490
-0.086816 0.022693 -0.217379
-0.087095 0.018523 -0.224036
-0.088071 0.006237 -0.225221
-0.087711 0.011078 -0.189389
-0.088161 0.003756 -0.201620
-0.087767 0.010042 -0.190520
-0.079250 -0.013641 -0.165335
-0.077202 0.007084 -0.158801
-0.079644 -0.031934 -0.174152
-0.078585 -0.033701 -0.172327
-0.067232 -0.010968 -0.153215
-0.074383 -0.037930 -0.166177
-0.051479 -0.008652 -0.142451
-0.034953 -0.019282 -0.134567
-0.028748 -0.023764 -0.133723
-0.060962 -0.036332 -0.152770
-0.082649 -0.030075 -0.182684
-0.083846 -0.030598 -0.187002
-0.086241 -0.028607 -0.198417
-0.087588 -0.014640 -0.194394
-0.087718 -0.013246 -0.201375
-0.035270 -0.032138 -0.152358
-0.038155 -0.039706 -0.164044
-0.029163 -0.036087 -0.169964
-0.000911 -0.029730 -0.166973
-0.005554 -0.016997 -0.203345
-0.005671 -0.023588 -0.186396
-0.013010 -0.025808 -0.183152
-0.030110 -0.033906 -0.182741
-0.029450 -0.033298 -0.183932
-0.025662 -0.026085 -0.214074
-0.030078 -0.038228 -0.195998
-0.032763 -0.045407 -0.191322
-0.035804 -0.044862 -0.174936
-0.032594 -0.048393 -0.198914
-0.033904 -0.050258 -0.192382
-0.046156 -0.071468 -0.171615
-0.048385 -0.076059 -0.169680
-0.035330 -0.069252 -0.206195
-0.035515 -0.052926 -0.183287
-0.043653 -0.073908 -0.178064
-0.039888 -0.084277 -0.196393
-0.037713 -0.084985 -0.223447
-0.047796 -0.081707 -0.175566
-0.054288 -0.062049 -0.160758
-0.055850 -0.082444 -0.170810
-0.062139 -0.055155 -0.159170
-0.067469 -0.050592 -0.162990
-0.077320 -0.060158 -0.180494
-0.077269 -0.049616 -0.176642
-0.064374 -0.078628 -0.170566
-0.063745 -0.082786 -0.171952
-0.084985 -0.040322 -0.197528
-0.078931 -0.069916 -0.191152
-0.084691 -0.046734 -0.203610
-0.085455 -0.036830 -0.219537
-0.085890 -0.031647 -0.221194
-0.087570 -0.014400 -0.226371
-0.080131 -0.082770 -0.196983
-0.084174 -0.058207 -0.216739
-0.084707 -0.059341 -0.226141
-0.072367 -0.096289 -0.187272
-0.081085 -0.097229 -0.210600
-0.066954 -0.119065 -0.197485
-0.058293 -0.123041 -0.198773
-0.049969 -0.119114 -0.199924
-0.067193 -0.123228 -0.200752
-0.042847 -0.098767 -0.202181
-0.039754 -0.099003 -0.219456
-0.041450 -0.096659 -0.209017
-0.038519 -0.130417 -0.237967
-0.042781 -0.122330 -0.214533
-0.040292 -0.136797 -0.225170
-0.043679 -0.138029 -0.220516
-0.040911 -0.148517 -0.238568
-0.049122 -0.147446 -0.219604
-0.043441 -0.158628 -0.236302
-0.041458 -0.174772 -0.251873
-0.060424 -0.164771 -0.229100
-0.055489 -0.182703 -0.239668
-0.045759 -0.190948 -0.247735
-0.040720 -0.209852 -0.262324
-0.056994 -0.183892 -0.240499
-0.042034 -0.224726 -0.263504
-0.050275 -0.204691 -0.250530
-0.043409 -0.239583 -0.262621
-0.047218 -0.215613 -0.254989
-0.046977 -0.251604 -0.255160
-0.047895 -0.265412 -0.249814
-0.054303 -0.252691 -0.251913
-0.058130 -0.224654 -0.252955
-0.041634 -0.291391 -0.253020
-0.058016 -0.274519 -0.245430
-0.065787 -0.256938 -0.254998
-0.041947 -0.299598 -0.253683
-0.043361 -0.304214 -0.259497
-0.042109 -0.316576 -0.245047
-0.049656 -0.294173 -0.231146
-0.064740 -0.298265 -0.222311
-0.077372 -0.309571 -0.217520
-0.077405 -0.315876 -0.218981
-0.074848 -0.299631 -0.222685
-0.082541 -0.305156 -0.224117
-0.084946 -0.302350 -0.232921
-0.086303 -0.304026 -0.239070
-0.082970 -0.295384 -0.242856
-0.077751 -0.314257 -0.257046
-0.079158 -0.290697 -0.241857
-0.079660 -0.288437 -0.245287
-0.069799 -0.288067 -0.238432
-0.061429 -0.288831 -0.235872
-0.072819 -0.266331 -0.262615
-0.072041 -0.257729 -0.266117
-0.072740 -0.307015 -0.265897
-0.074186 -0.300028 -0.267189
-0.064732 -0.312547 -0.265403
-0.065581 -0.296186 -0.271864
-0.062085 -0.313121 -0.264587
-0.052378 -0.315418 -0.261028
-0.050420 -0.305466 -0.265144
-0.059573 -0.291622 -0.272635
-0.042723 -0.255418 -0.266489
-0.057446 -0.282187 -0.273789
-0.057468 -0.281897 -0.273863
-0.043688 -0.245415 -0.270710
-0.040597 -0.221461 -0.267435
-0.066529 -0.249830 -0.276529
-0.069545 -0.230524 -0.270070
-0.068565 -0.222807 -0.267964
-0.059743 -0.273264 -0.276372
-0.066950 -0.230778 -0.275431
-0.061642 -0.232186 -0.281161
-0.059048 -0.225246 -0.283543
-0.050894 -0.224396 -0.283500
-0.052054 -0.213417 -0.285007
-0.037349 -0.203156 -0.268416
-0.065116 -0.200991 -0.281728
-0.065589 -0.212553 -0.278915
-0.061219 -0.202970 -0.252079
-0.069741 -0.185625 -0.265792
-0.063488 -0.181687 -0.243673
-0.069928 -0.172508 -0.256447
-0.066536 -0.189403 -0.279367
-0.049844 -0.194373 -0.288879
-0.039889 -0.187022 -0.276151
-0.049021 -0.164654 -0.276865
-0.062732 -0.166864 -0.272695
-0.067022 -0.164750 -0.263820
-0.041722 -0.168693 -0.256961
-0.041674 -0.159052 -0.249076
-0.041685 -0.152260 -0.245023
-0.040711 -0.140774 -0.244816
-0.058419 -0.143099 -0.265938
-0.038994 -0.135399 -0.240971
-0.040447 -0.122762 -0.246278
-0.045358 -0.137503 -0.256033
-0.051785 -0.137896 -0.265328
-0.058598 -0.128766 -0.262665
-0.040373 -0.078521 -0.245286
-0.045275 -0.099537 -0.254683
-0.044648 -0.099069 -0.254174
-0.038630 -0.052519 -0.251493
-0.038507 -0.066205 -0.245065
-0.034296 -0.060716 -0.234243
-0.029677 -0.052177 -0.226028
-0.055655 -0.080717 -0.259129
-0.041798 -0.063808 -0.253708
-0.038170 -0.047212 -0.252935
-0.039168 -0.047432 -0.255664
-0.032664 -0.029239 -0.248600
-0.030421 -0.028539 -0.242073
-0.049820 -0.056310 -0.258859
-0.044947 -0.041548 -0.260559
-0.059471 -0.103377 -0.259721
-0.066758 -0.055836 -0.257618
-0.072128 -0.052301 -0.255442
-0.071975 -0.088966 -0.249846
-0.076042 -0.104657 -0.244265
-0.075164 -0.060447 -0.249732
-0.079743 -0.098947 -0.238979
-0.078491 -0.068135 -0.242297
-0.079631 -0.046368 -0.245543
-0.084215 -0.080175 -0.233194
-0.082610 -0.088609 -0.230909
-0.083480 -0.031991 -0.237895
-0.074019 -0.041239 -0.256391
-0.086268 -0.016008 -0.233012
-0.080795 -0.108323 -0.234375
-0.081892 -0.102932 -0.220211
-0.083557 -0.089076 -0.219412
-0.081895 -0.003356 -0.243329
-0.079416 -0.005028 -0.248679
-0.087062 0.005891 -0.229734
-0.078230 0.003725 -0.250617
-0.066222 -0.025937 -0.263158
-0.073845 -0.007961 -0.260221
-0.070518 0.030576 -0.254186
-0.075999 0.021112 -0.248218
-0.072912 0.048604 -0.237658
-0.079808 0.046008 -0.225570
-0.079263 0.043074 -0.228920
-0.058238 0.000845 -0.269772
-0.061016 0.019675 -0.265231
-0.040502 -0.021997 -0.264612
-0.054139 -0.016014 -0.269642
-0.027714 -0.015510 -0.243515
-0.026722 -0.018095 -0.237834
-0.056527 0.020866 -0.267630
-0.051641 0.016205 -0.271444
-0.047230 0.008029 -0.272529
-0.042540 0.008648 -0.271571
-0.029489 -0.004168 -0.261851
-0.022214 -0.005060 -0.251257
-0.013021 -0.003828 -0.240124
-0.010440 -0.002926 -0.236896
-0.026201 0.017149 -0.271395
-0.035001 0.011955 -0.270494
-0.006203 0.025889 -0.266529
-0.011362 0.033008 -0.268183
-0.022527 0.032637 -0.272394
-0.006235 0.056632 -0.265997
-0.033665 0.044647 -0.270850
-0.011918 0.066602 -0.267541
-0.034661 0.071773 -0.262756
-0.019269 0.067693 -0.266704
-0.062582 0.039614 -0.260453
-0.052967 0.039706 -0.265696
-0.056795 0.053068 -0.258195
-0.053419 0.071171 -0.251705
-0.063090 0.068079 -0.240819
-0.065322 0.062590 -0.241062
-0.029483 0.090352 -0.253368
-0.032937 0.093444 -0.248467
-0.033770 0.092138 -0.248930
-0.066494 0.075080 -0.224813
-0.063664 0.075886 -0.229708
-0.054372 0.083101 -0.239354
-0.041207 0.087892 -0.246900
-0.059633 0.089242 -0.218562
-0.054045 0.093677 -0.224798
-0.010643 0.102341 -0.261329
-0.004337 0.102847 -0.264847
-0.050552 0.102256 -0.214560
-0.051645 0.108026 -0.187441
-0.054830 0.102404 -0.197531
-0.043099 0.100174 -0.232646
-0.039853 0.108199 -0.221222
-0.040595 0.118552 -0.190197
-0.037281 0.123037 -0.172813
-0.027263 0.118456 -0.210372
-0.028415 0.119106 -0.207075
-0.033536 0.120343 -0.195972
-0.019677 0.108079 -0.240583
-0.013164 0.121686 -0.219292
-0.028387 0.126920 -0.178186
-0.021542 0.132532 -0.164561
-0.008453 0.113109 -0.243134
-0.001051 0.106778 -0.256218
-0.021592 0.133259 -0.155551
-0.023329 0.131453 -0.130386
-0.028280 0.130055 -0.149412
0.003612 0.103899 -0.262580
0.009576 0.110573 -0.248173
-0.001116 0.129122 -0.200305
-0.000091 0.130592 -0.196325
-0.012070 0.121435 -0.221327
0.016702 0.109261 -0.240390
-0.000800 0.134880 -0.170184
-0.012780 0.132556 -0.176833
0.007305 0.129781 -0.195666
0.005363 0.131547 -0.187655
-0.004569 0.136215 -0.155687
-0.012901 0.136043 -0.147054
0.007539 0.134132 -0.169956
0.005320 0.136678 -0.143613
0.016886 0.118159 -0.222549
0.028395 0.125136 -0.183900
0.024394 0.128888 -0.173858
0.023725 0.116283 -0.219140
0.020907 0.126088 -0.193269
0.033454 0.100744 -0.238639
0.026657 0.111498 -0.227651
0.028792 0.129077 -0.158227
0.044780 0.113646 -0.187039
0.042221 0.117161 -0.180596
0.036176 0.122784 -0.173576
0.046757 0.106343 -0.211030
0.060923 0.092418 -0.205270
0.050582 0.105707 -0.196517
0.052446 0.103160 -0.199065
0.018861 0.133906 -0.153069
0.008730 0.136341 -0.145333
0.041206 0.118966 -0.153235
0.004761 0.137154 -0.125895
-0.011089 0.136776 -0.131578
0.022029 0.131146 -0.126836
0.032263 0.124718 -0.130460
-0.020386 0.131827 -0.113157
-0.023288 0.127490 -0.083973
-0.007137 0.136036 -0.104336
0.009250 0.135533 -0.103890
-0.014709 0.131899 -0.080601
-0.010030 0.134294 -0.086198
-0.021047 0.127085 -0.067144
-0.023439 0.123194 -0.041160
-0.023640 0.122439 -0.014402
0.000223 0.131861 -0.043467
-0.002958 0.131292 -0.042275
0.011802 0.135403 -0.107800
0.001206 0.133776 -0.064385
-0.016027 0.126694 -0.016455
-0.008459 0.129352 -0.017220
-0.029279 0.118986 0.016859
-0.032414 0.115571 0.012391
-0.009219 0.129039 0.004011
-0.038772 0.110760 0.041259
-0.019392 0.125027 0.017340
-0.025911 0.121207 0.032430
-0.043196 0.105738 0.040168
-0.040521 0.110310 0.054976
-0.005749 0.129665 0.022726
-0.027201 0.123325 0.061462
-0.017683 0.130396 0.064359
-0.013339 0.132042 0.059710
-0.044284 0.110203 0.078923
-0.027060 0.127089 0.079337
-0.030504 0.127013 0.091060
-0.033303 0.121383 0.075425
-0.006937 0.131879 0.055521
-0.010898 0.133960 0.072608
-0.047644 0.106882 0.087886
-0.041664 0.116916 0.094930
-0.056443 0.089655 0.076103
-0.051841 0.097833 0.071665
-0.021175 0.138063 0.108964
-0.033717 0.127053 0.103112
-0.042356 0.121984 0.124848
-0.041689 0.120314 0.113296
-0.031298 0.133168 0.126764
-0.035702 0.128478 0.120672
-0.045737 0.117584 0.128500
-0.014593 0.140627 0.111435
-0.011715 0.141857 0.116009
-0.004157 0.137905 0.089200
-0.004877 0.143210 0.119611
0.017856 0.143365 0.131563
0.001944 0.145674 0.135345
-0.060359 0.085894 0.113536
-0.057836 0.095668 0.125275
-0.057665 0.088575 0.091200
-0.057546 0.088863 0.099426
-0.063154 0.078782 0.115121
-0.067062 0.071920 0.133371
-0.066827 0.061900 0.088518
-0.064123 0.072475 0.093212
-0.068437 0.065805 0.131130
-0.067985 0.067210 0.129993
-0.066934 0.063576 0.105995
-0.073203 0.046007 0.128105
-0.075673 0.047106 0.143483
-0.075597 0.027752 0.129579
-0.073667 0.032377 0.110779
-0.077577 0.035299 0.143804
0.000955 0.134707 0.073369
0.013975 0.138668 0.100699
0.006168 0.133466 0.068224
0.027895 0.130754 0.104058
0.007649 0.129474 0.036401
0.004568 0.129402 0.028917
0.019630 0.133061 0.085764
0.018967 0.126842 0.050667
0.020483 0.135158 0.096913
0.009871 0.129097 0.018097
0.006240 0.129643 -0.013200
0.025071 0.122212 0.046100
0.016747 0.125773 0.013939
0.019757 0.124202 0.027415
0.010970 0.128683 -0.008211
0.008958 0.132980 -0.069508
0.014338 0.126842 -0.019399
0.021058 0.123170 0.008481
0.012688 0.130086 -0.058503
0.020625 0.123536 -0.029851
0.030712 0.116374 0.014757
0.026836 0.119459 -0.006337
0.032666 0.118672 0.064649
0.036197 0.110884 0.019659
0.035628 0.115489 0.066212
0.038434 0.110656 0.050305
0.040543 0.113218 0.080125
0.045527 0.098249 -0.006701
0.051821 0.088815 -0.007258
0.050269 0.094523 0.045778
0.049780 0.092921 0.021238
0.052479 0.088339 0.009956
0.045895 0.109175 0.101852
0.045063 0.107918 0.080894
0.058216 0.082032 0.063767
0.055294 0.085930 0.047870
0.050817 0.097360 0.072805
0.052865 0.093582 0.073814
0.041357 0.117466 0.107863
0.029742 0.131613 0.116347
0.032556 0.132709 0.138815
0.043732 0.122240 0.144115
0.049901 0.105940 0.115088
0.052639 0.099162 0.108345
0.055336 0.095917 0.117815
0.061297 0.076647 0.075043
0.056457 0.088222 0.098991
0.064416 0.073330 0.123513
0.061919 0.080967 0.126452
0.060710 0.090569 0.148108
0.068522 0.073086 0.157980
0.064238 0.084060 0.156980
0.064248 0.068978 0.107481
0.069033 0.055831 0.124575
0.073909 0.054633 0.153347
0.068835 0.068212 0.146654
0.073516 0.044713 0.137159
0.066503 0.058641 0.100288
0.068016 0.054408 0.105651
0.063481 0.068865 0.075580
0.064080 0.067485 0.093898
0.075629 0.043126 0.145020
0.074954 0.017998 0.125591
0.073286 0.035119 0.127170
0.080438 0.036001 0.178924
0.077097 0.042908 0.154579
0.073302 0.061680 0.174889
0.070864 0.067082 0.183085
0.077683 0.027901 0.145366
0.080102 0.025057 0.152310
0.077075 0.031719 0.145183
0.083099 0.024653 0.177531
0.084476 0.018018 0.173419
0.075943 0.043182 0.192143
0.061006 0.069975 0.215921
0.084351 0.001331 0.183090
0.085565 0.002674 0.178156
0.065982 0.057669 0.210384
0.048691 0.067241 0.236523
0.075289 0.024359 0.199793
0.078487 0.033531 0.189340
0.079434 0.002330 0.198086
0.072359 0.028387 0.205558
0.064057 0.046747 0.215165
0.071025 0.023459 0.208016
0.061290 0.010721 0.216635
0.066130 0.011477 0.211887
0.068221 0.000216 0.209339
0.046085 0.041725 0.235431
0.056175 0.045362 0.225771
0.046796 0.030283 0.232509
0.046262 0.075230 0.240432
0.035820 0.090942 0.259202
0.035808 0.050837 0.246488
0.038469 0.055541 0.245062
0.034196 0.089520 0.260864
0.035008 0.064190 0.251366
0.026803 0.089856 0.267954
0.013305 0.095621 0.278828
0.005936 0.070502 0.271926
0.013350 0.068578 0.267084
0.016030 0.069485 0.266098
0.017548 0.051102 0.256204
0.037081 0.040273 0.242269
0.037295 0.044392 0.243565
0.025675 0.026677 0.243310
0.016222 0.043273 0.253461
0.046251 0.012471 0.229622
0.023306 0.020739 0.242155
0.006083 0.019553 0.246412
0.032660 0.011974 0.236080
0.033085 0.000178 0.234017
0.030500 -0.002952 0.234279
0.013921 -0.003894 0.237602
0.001241 0.000168 0.239398
0.048044 -0.007763 0.225097
0.055196 0.001407 0.222077
0.062481 -0.020308 0.215677
0.022317 -0.022637 0.229802
0.022632 -0.022422 0.229807
0.058509 -0.022414 0.217857
0.034440 -0.027622 0.227136
0.007350 -0.052213 0.210862
0.040888 -0.055298 0.217808
0.027772 -0.055094 0.215767
0.061408 -0.028991 0.215561
0.045475 -0.036030 0.223392
0.079050 -0.032664 0.194714
0.076350 -0.025024 0.199154
0.067836 -0.038995 0.210483
0.082672 -0.013823 0.191263
0.064759 -0.063915 0.204021
0.085213 -0.026349 0.178663
0.087163 -0.022924 0.165892
0.049124 -0.067539 0.209933
0.073733 -0.066357 0.192454
0.076104 -0.062324 0.190556
0.053624 -0.073360 0.205105
0.066752 -0.083242 0.196444
0.030781 -0.075213 0.203138
0.051648 -0.094187 0.200048
0.034987 -0.079483 0.203081
0.072866 -0.083868 0.187001
0.009324 -0.059338 0.200478
0.002480 -0.064416 0.187696
0.007481 -0.076213 0.155434
0.007814 -0.067831 0.178888
0.020925 -0.076079 0.166321
0.015652 -0.070146 0.186621
0.022946 -0.082475 0.194091
0.031858 -0.096534 0.194893
0.027314 -0.100565 0.168621
0.028323 -0.104094 0.166769
0.034792 -0.114027 0.191832
0.030814 -0.116680 0.172404
0.059398 -0.112527 0.194183
0.045352 -0.102631 0.200759
0.055352 -0.116952 0.195185
0.035530 -0.155626 0.185022
0.035108 -0.140060 0.165534
0.048033 -0.130139 0.196261
0.041452 -0.156839 0.191536
0.053078 -0.144916 0.194158
0.036871 -0.162903 0.175066
0.037478 -0.178701 0.171864
0.040177 -0.177177 0.188209
0.048042 -0.168280 0.196247
0.037268 -0.187652 0.174992
0.062939 -0.130440 0.186905
0.037321 -0.189478 0.175762
0.070793 -0.102142 0.180260
0.072261 -0.092225 0.173382
0.037285 -0.194616 0.179744
0.043152 -0.191345 0.191027
0.037777 -0.206827 0.176862
0.045633 -0.217677 0.190977
0.046045 -0.230646 0.191214
0.049857 -0.215634 0.190459
0.047128 -0.234695 0.191321
0.038944 -0.248709 0.181610
0.043051 -0.254948 0.171246
0.055666 -0.269524 0.192501
0.040564 -0.284127 0.192295
0.038463 -0.277684 0.182978
0.042071 -0.264305 0.177890
0.042298 -0.282495 0.174597
0.040806 -0.300009 0.178018
0.049172 -0.308943 0.178351
0.042619 -0.307018 0.189523
0.047394 -0.308764 0.224033
0.058503 -0.301840 0.223863
0.054472 -0.296549 0.212484
0.062726 -0.307863 0.226932
0.070483 -0.316305 0.227512
0.068718 -0.306749 0.226006
0.066747 -0.300370 0.217972
0.077410 -0.301210 0.209831
0.086567 -0.314690 0.216767
0.087610 -0.316715 0.208928
0.085760 -0.309704 0.197899
0.067948 -0.289463 0.195852
0.065894 -0.272175 0.183268
0.078119 -0.309719 0.178357
0.056376 -0.316499 0.174762
0.067823 -0.294838 0.170228
0.052591 -0.306435 0.173820
0.066110 -0.270908 0.167215
0.054904 -0.265890 0.158594
0.047264 -0.260821 0.164980
0.043213 -0.246231 0.167509
0.054334 -0.250193 0.156986
0.065520 -0.261702 0.159457
0.067360 -0.259964 0.169197
0.064662 -0.220356 0.164903
0.064807 -0.215549 0.165566
0.063100 -0.222306 0.180442
0.066344 -0.203071 0.170719
0.056068 -0.202704 0.190775
0.061094 -0.174894 0.191064
0.062438 -0.156502 0.187252
0.068870 -0.179762 0.173463
0.067567 -0.120782 0.167500
0.068521 -0.168126 0.168016
0.067154 -0.151546 0.165706
0.065783 -0.157715 0.160529
0.056167 -0.195415 0.152271
0.048999 -0.199737 0.155313
0.044166 -0.225087 0.164057
0.045281 -0.226284 0.163075
0.042649 -0.196811 0.161449
0.048077 -0.166879 0.152460
0.042417 -0.165329 0.160025
0.039342 -0.152932 0.162079
0.049616 -0.143823 0.147358
0.046354 -0.143724 0.151311
0.039687 -0.130464 0.156910
0.045010 -0.125643 0.148752
0.039766 -0.113468 0.151778
0.035405 -0.106520 0.155318
0.039066 -0.094749 0.147975
0.031355 -0.088695 0.157469
0.052890 -0.099691 0.138412
0.059481 -0.128395 0.145786
0.048913 -0.094655 0.140096
0.055348 -0.097081 0.136990
0.065765 -0.111720 0.153657
0.067618 -0.120471 0.164015
0.056421 -0.090684 0.138460
0.044825 -0.077106 0.143190
0.068223 -0.091889 0.152325
0.036325 -0.076560 0.141864
0.029198 -0.074909 0.136941
0.008456 -0.078170 0.149817
0.006620 -0.084082 0.133484
0.034280 -0.072682 0.131823
0.021698 -0.083810 0.115043
0.013296 -0.088667 0.086410
0.017637 -0.088222 0.095452
0.036345 -0.073596 0.112391
0.032904 -0.076823 0.109216
0.021533 -0.086415 0.080268
0.022850 -0.086344 0.084210
0.044687 -0.069280 0.094293
0.029999 -0.081638 0.090718
0.026184 -0.082783 0.057452
0.033827 -0.077430 0.067822
0.035736 -0.076140 0.071179
0.014415 -0.082298 0.039602
0.006505 -0.087616 0.050945
0.026597 -0.073385 0.027060
0.024605 -0.072078 0.018419
0.006780 -0.077427 0.016289
0.054722 -0.055207 0.087627
0.047498 -0.065529 0.094578
0.047789 -0.063130 0.115353
0.053019 -0.057356 0.099499
0.015923 -0.072687 0.009294
0.011165 -0.065205 -0.015481
0.038393 -0.067143 0.036113
0.033271 -0.069563 0.031343
0.025836 -0.060855 -0.008041
0.008030 -0.061365 -0.027176
0.006463 -0.054502 -0.040750
0.029424 -0.055375 -0.013985
0.032862 -0.053317 -0.012197
0.017693 -0.053976 -0.035053
0.056323 -0.049726 0.052040
0.048895 -0.054367 0.034673
0.053352 -0.049585 0.039818
0.051336 -0.058798 0.065274
0.055035 -0.052130 0.054333
0.048476 -0.040611 0.000613
0.053922 -0.038054 0.011859
0.054692 -0.044248 0.031141
0.029847 -0.044009 -0.036884
0.014755 -0.048515 -0.048576
0.019291 -0.043702 -0.052721
0.039615 -0.037765 -0.029160
0.047535 -0.033730 -0.016755
0.003121 -0.036725 -0.093683
0.001328 -0.032813 -0.121516
0.026290 -0.034004 -0.063494
0.020625 -0.033174 -0.072728
0.011739 -0.033155 -0.096182
0.034663 -0.037958 -0.040508
0.029702 -0.031216 -0.063793
0.004804 -0.031626 -0.128467
0.001008 -0.031935 -0.135101
0.022212 -0.028315 -0.088491
0.012843 -0.029414 -0.126592
0.032918 -0.026081 -0.065962
0.033396 -0.019022 -0.082064
0.048584 -0.026074 -0.027708
0.055493 -0.024640 -0.006423
0.055492 -0.019909 -0.013507
0.044540 -0.011986 -0.060097
0.056918 -0.006553 -0.027953
0.063888 -0.013135 0.008474
0.062800 -0.016220 0.008907
0.061981 -0.021762 0.014493
0.060572 -0.026835 0.017768
0.057195 0.011398 -0.044035
0.063150 0.010522 -0.014801
0.064016 -0.010146 0.004899
0.061817 0.007657 -0.019878
0.061944 0.006789 -0.018238
0.064401 -0.030597 0.046085
0.065519 -0.029980 0.050937
0.067223 0.013752 0.002767
0.067316 0.026961 -0.006806
0.067372 0.026776 -0.006360
0.069370 0.002962 0.023501
0.072218 0.020672 0.025207
0.071347 0.002167 0.037113
0.069400 -0.022767 0.069028
0.066834 -0.028305 0.055767
0.067975 -0.027259 0.086939
0.061455 -0.041764 0.060720
0.074489 0.014770 0.057160
0.071898 0.002802 0.040178
0.062675 -0.040980 0.101921
0.061323 -0.044356 0.101032
0.059617 -0.048163 0.105953
0.050986 -0.059114 0.127750
0.071578 -0.011096 0.082323
0.072895 0.001738 0.091302
0.070709 -0.019785 0.075131
0.073434 0.005042 0.083674
0.073546 0.004585 0.073805
0.055847 -0.055435 0.132003
0.062530 -0.062772 0.140652
0.066475 -0.032400 0.123563
0.073513 0.006975 0.097191
0.071355 -0.014438 0.119803
0.070987 -0.029448 0.133674
0.070639 -0.051801 0.142393
0.074188 0.006836 0.109570
0.074553 0.004404 0.122390
0.074476 0.009270 0.107768
0.071956 -0.020105 0.131484
0.074199 0.020122 0.117420
0.075527 0.013385 0.126026
0.073564 0.018785 0.086197
0.073659 0.022700 0.077621
0.080760 -0.008833 0.149624
0.081107 -0.008315 0.150496
0.079356 -0.020463 0.148443
0.084447 -0.011946 0.160842
0.087258 -0.007839 0.166117
0.072586 0.032080 0.066323
0.072755 0.030912 0.069412
0.067922 0.052939 0.086442
0.063181 0.070254 0.069678
0.071588 0.036203 0.047016
0.070518 0.043512 0.058707
0.063558 0.069116 0.065125
0.067103 0.057093 0.060098
0.072798 0.024599 0.033565
0.071289 0.035162 0.035608
0.064919 0.062915 0.041661
0.063053 0.069602 0.053021
0.070523 0.035031 0.021435
0.068619 0.051028 0.029973
0.067299 0.054956 0.030340
0.066160 0.054257 0.006049
0.068652 0.034038 0.003924
0.065288 0.053106 -0.007492
0.058197 0.076294 0.017632
0.057715 0.076710 0.000038
0.065711 0.037656 -0.013475
0.060123 0.066497 -0.016681
0.059416 0.068831 -0.015858
0.064062 0.040639 -0.024444
0.062789 0.036612 -0.032526
0.060263 0.059592 -0.035716
0.048465 0.093149 -0.020327
0.045436 0.097884 -0.016325
0.059852 0.055517 -0.053571
0.060927 0.044234 -0.042152
0.040408 0.104945 -0.022015
0.044431 0.099290 -0.017931
0.032996 0.113088 -0.025596
0.054249 0.078711 -0.050996
0.039237 0.105649 -0.039696
0.047807 0.092981 -0.060838
0.057166 0.062801 -0.070095
0.056381 0.070026 -0.057602
0.030191 0.116320 -0.042311
0.037822 0.109688 -0.059008
0.042032 0.102944 -0.062880
0.058854 0.030722 -0.062896
0.057627 0.024067 -0.060920
0.056551 0.013082 -0.049554
0.057070 0.064299 -0.076800
0.056581 0.065477 -0.072791
0.059155 0.055734 -0.100709
0.049003 0.092116 -0.070878
0.044948 0.101966 -0.084434
0.055526 0.077779 -0.095031
0.057799 0.069747 -0.104824
0.027671 0.121306 -0.068866
0.028555 0.119479 -0.058725
0.018110 0.128121 -0.068845
0.015340 0.131972 -0.092042
0.026803 0.126901 -0.108322
0.037157 0.114224 -0.083754
0.030475 0.120443 -0.083271
0.034520 0.118799 -0.099942
0.038681 0.110964 -0.076815
0.047461 0.101969 -0.105395
0.044021 0.115172 -0.135834
0.045882 0.106962 -0.116121
0.054537 0.094710 -0.125549
0.045382 0.109783 -0.123046
0.051889 0.100249 -0.129383
0.056105 0.082967 -0.108946
0.059333 0.086300 -0.128168
0.056608 0.097979 -0.153785
0.049223 0.109642 -0.146700
0.065437 0.082262 -0.164674
0.066701 0.085152 -0.187055
0.056715 0.101672 -0.174505
0.060287 0.064420 -0.117749
0.063085 0.079112 -0.146494
0.063336 0.069459 -0.145472
0.061769 0.057511 -0.133596
0.057817 0.041466 -0.090040
0.066041 0.070740 -0.158347
0.055653 0.029856 -0.086517
0.051128 0.018244 -0.090163
0.049705 0.005970 -0.072219
0.049033 0.004564 -0.073038
0.042491 -0.008927 -0.072353
0.057254 0.041028 -0.120066
0.059812 0.040698 -0.138146
0.062215 0.040303 -0.145270
0.049009 0.017407 -0.108232
0.047513 0.009889 -0.095494
0.053684 0.029540 -0.115652
0.050111 0.017670 -0.124480
0.044704 -0.000141 -0.083427
0.042265 -0.001814 -0.094110
0.031362 -0.018041 -0.096873
0.045702 0.007301 -0.120798
0.025972 -0.022984 -0.126171
0.033439 -0.013260 -0.112714
0.056815 0.022256 -0.138865
0.055092 0.001966 -0.143505
0.031205 -0.020446 -0.133782
0.005438 -0.031446 -0.146520
0.034163 -0.023123 -0.137971
0.021634 -0.030006 -0.150154
0.013946 -0.030503 -0.155888
0.007610 -0.012844 -0.213979
0.005652 -0.024937 -0.182913
0.015686 -0.017833 -0.214816
0.018470 -0.032213 -0.162148
0.022092 -0.029328 -0.189249
0.022642 -0.031482 -0.182185
0.030269 -0.033425 -0.158166
0.024153 -0.028928 -0.220199
0.030354 -0.037112 -0.177777
0.032281 -0.044633 -0.179737
0.031950 -0.057520 -0.206866
0.029241 -0.053720 -0.221304
0.045278 -0.025822 -0.145532
0.035162 -0.044373 -0.172195
0.047142 -0.035656 -0.148685
0.048091 -0.018186 -0.144192
0.050126 -0.045649 -0.153526
0.055441 -0.034296 -0.150770
0.045807 -0.062162 -0.163994
0.070374 -0.013485 -0.156509
0.037375 -0.058857 -0.178725
0.033178 -0.060827 -0.200576
0.050782 -0.060951 -0.160005
0.052704 -0.061521 -0.160227
0.033657 -0.073393 -0.219569
0.038128 -0.085277 -0.202248
0.037276 -0.084848 -0.212544
0.046069 -0.089148 -0.183860
0.040963 -0.086156 -0.191646
0.051925 -0.079585 -0.169032
0.037348 -0.094300 -0.225114
0.037533 -0.105878 -0.228238
0.037333 -0.127226 -0.235876
0.048144 -0.104381 -0.192349
0.044279 -0.116665 -0.206167
0.060670 -0.102615 -0.182525
0.038942 -0.123808 -0.220775
0.045896 -0.128472 -0.210803
0.048873 -0.144134 -0.215962
0.059536 -0.124171 -0.198512
0.052836 -0.141023 -0.212907
0.041212 -0.160819 -0.241246
0.046257 -0.174334 -0.239042
0.039540 -0.194465 -0.254503
0.041219 -0.187831 -0.249539
0.051714 -0.190027 -0.243141
0.054227 -0.187761 -0.242096
0.044935 -0.229982 -0.256961
0.041459 -0.265775 -0.260156
0.045756 -0.254817 -0.253958
0.043544 -0.270070 -0.251125
0.049008 -0.271377 -0.246460
0.040417 -0.300560 -0.252865
0.041713 -0.304322 -0.258349
0.042232 -0.291342 -0.240872
0.040445 -0.307453 -0.221311
0.047715 -0.296919 -0.228459
0.062815 -0.300663 -0.219079
0.065335 -0.310819 -0.214691
0.073576 -0.300108 -0.222088
0.072648 -0.300995 -0.218550
0.081268 -0.300991 -0.256838
0.070506 -0.277851 -0.249149
0.049943 -0.290242 -0.235458
0.053265 -0.280138 -0.242308
0.060089 -0.247507 -0.254666
0.057516 -0.222174 -0.253580
0.065942 -0.215647 -0.265245
0.071141 -0.263404 -0.265825
0.068634 -0.239456 -0.269086
0.071263 -0.299456 -0.268065
0.058397 -0.312916 -0.264400
0.042758 -0.305390 -0.259890
0.059216 -0.291609 -0.272876
0.064322 -0.278418 -0.273368
0.061280 -0.289990 -0.273655
0.064425 -0.259140 -0.275758
0.041446 -0.253623 -0.266991
0.043098 -0.254265 -0.271057
0.048501 -0.265815 -0.274680
0.054733 -0.270609 -0.276778
0.049232 -0.245682 -0.278364
0.045420 -0.236085 -0.277088
0.060259 -0.240915 -0.280814
0.064119 -0.237252 -0.278409
0.042605 -0.215648 -0.279104
0.053423 -0.218249 -0.284147
0.036222 -0.200909 -0.270076
0.046501 -0.201418 -0.287688
0.059409 -0.212305 -0.283168
0.057745 -0.187371 -0.286872
0.060798 -0.197649 -0.284817
0.060757 -0.202543 -0.252791
0.068273 -0.184139 -0.261025
0.063952 -0.192691 -0.253029
0.062894 -0.187981 -0.281908
0.066941 -0.170921 -0.248374
0.061667 -0.170081 -0.234639
0.063241 -0.158360 -0.227853
0.065139 -0.150533 -0.224081
0.074544 -0.121095 -0.209267
0.072357 -0.118059 -0.203935
0.073350 -0.115118 -0.202978
0.073734 -0.108885 -0.199013
0.061689 -0.099403 -0.180064
0.078387 -0.115919 -0.222066
0.076527 -0.131361 -0.233495
0.072309 -0.084901 -0.182127
0.062264 -0.062210 -0.163072
0.078859 -0.089170 -0.199467
0.081738 -0.097526 -0.222944
0.075479 -0.079591 -0.183657
0.078283 -0.077728 -0.194009
0.080134 -0.084703 -0.204628
0.069123 -0.049785 -0.165717
0.063738 -0.040796 -0.157719
0.070613 -0.022422 -0.158358
0.074587 -0.055738 -0.174447
0.074664 -0.045806 -0.171185
0.082412 -0.047306 -0.197522
0.074603 -0.069228 -0.179553
0.077527 -0.019946 -0.166945
0.082463 -0.022562 -0.181074
0.081320 -0.035954 -0.187012
0.081155 -0.008179 -0.171891
0.075740 -0.009947 -0.160250
0.069307 0.002995 -0.154541
0.057476 0.000625 -0.146337
0.086716 -0.009286 -0.188384
0.086434 -0.012268 -0.206560
0.083968 0.001651 -0.177837
0.080589 0.014378 -0.170873
0.086591 0.006725 -0.195142
0.086373 0.009599 -0.187073
0.073211 0.029443 -0.158163
0.080779 0.030496 -0.177217
0.073644 0.031063 -0.159721
0.070144 0.048827 -0.160710
0.073844 0.052824 -0.172397
0.069300 0.058335 -0.163321
0.069950 0.076374 -0.183373
0.084111 0.030457 -0.196401
0.082586 0.037639 -0.197412
0.085677 0.020047 -0.216820
0.086453 0.009710 -0.223104
0.086445 0.011701 -0.205325
0.076378 0.062737 -0.212414
0.073321 0.070746 -0.206049
0.071244 0.075011 -0.193539
0.081698 0.042760 -0.216541
0.080773 0.045368 -0.197824
0.059880 0.083907 -0.223547
0.059145 0.091510 -0.212665
0.062086 0.072217 -0.235344
0.059449 0.074507 -0.237739
0.054316 0.084985 -0.233934
0.042709 0.088291 -0.244089
0.035043 0.097982 -0.241107
0.076466 0.037349 -0.236231
0.071633 0.053469 -0.233800
0.072327 0.062531 -0.225131
0.068749 0.049762 -0.242472
0.065842 0.056131 -0.242791
0.042568 0.073551 -0.256691
0.032451 0.089379 -0.251084
0.053594 0.060329 -0.255914
0.024395 0.096929 -0.250952
0.022726 0.089853 -0.258368
0.069807 0.036425 -0.250121
0.071213 0.030166 -0.250440
0.073857 0.033033 -0.243959
0.086386 0.006839 -0.227871
0.078893 0.003326 -0.246134
0.014497 0.071764 -0.266400
0.046107 0.046063 -0.266290
0.038006 0.068708 -0.262033
0.039544 0.038279 -0.271780
0.031355 0.068464 -0.264022
0.066091 0.029713 -0.259616
0.055975 0.023133 -0.266804
0.024776 0.033120 -0.272426
0.014409 0.051423 -0.268548
0.002977 0.018167 -0.263190
0.010553 0.016532 -0.263772
0.034519 0.024426 -0.271912
0.031720 0.021570 -0.271720
0.015630 0.004486 -0.262188
0.036650 0.000205 -0.270427
-0.000162 0.004341 -0.255450
0.001285 -0.000397 -0.244081
0.014585 -0.007764 -0.237166
0.024215 0.000090 -0.265285
0.022939 -0.001282 -0.261094
0.042553 -0.003089 -0.270746
0.047488 -0.008204 -0.270458
0.057178 -0.007271 -0.269041
0.029281 -0.012450 -0.256241
0.024840 -0.015221 -0.238852
0.048216 -0.024174 -0.266351
0.038183 -0.026224 -0.262919
0.031385 -0.033629 -0.246566
0.033724 -0.029175 -0.256280
0.066502 -0.011652 -0.263334
0.074466 -0.008722 -0.256465
0.085589 -0.003882 -0.232465
0.055881 -0.042206 -0.265012
0.057435 -0.040921 -0.264723
0.033930 -0.032475 -0.254791
0.031805 -0.043713 -0.240913
0.048603 -0.046128 -0.261184
0.035131 -0.048830 -0.247292
0.084979 -0.021215 -0.232325
0.084274 -0.015994 -0.234513
0.084452 -0.032702 -0.214225
0.086261 -0.014017 -0.222851
0.083657 -0.042357 -0.200545
0.033609 -0.062791 -0.235278
0.083645 -0.045878 -0.223791
0.083162 -0.066030 -0.222483
0.074883 -0.040669 -0.253747
0.083687 -0.043475 -0.233748
0.082905 -0.078957 -0.226993
0.070919 -0.050347 -0.255755
0.043864 -0.052391 -0.257723
0.042612 -0.064667 -0.254497
0.072761 -0.060566 -0.251674
0.061152 -0.068070 -0.257562
0.077860 -0.067998 -0.241475
0.065462 -0.087613 -0.255274
0.079223 -0.080048 -0.240515
0.058889 -0.090558 -0.258490
0.081952 -0.086045 -0.226720
0.070866 -0.097404 -0.249174
0.082136 -0.089682 -0.221885
0.076690 -0.116300 -0.240539
0.066907 -0.101678 -0.254535
0.079616 -0.113528 -0.232525
0.065881 -0.120462 -0.256915
0.064955 -0.127322 -0.258400
0.072173 -0.148023 -0.241724
0.069808 -0.155390 -0.248184
0.065791 -0.166116 -0.264623
0.067297 -0.144586 -0.256752
0.063699 -0.151602 -0.263429
0.058699 -0.156846 -0.269757
0.056912 -0.136979 -0.264774
0.050974 -0.156752 -0.272025
0.056255 -0.178681 -0.283560
0.053035 -0.170806 -0.280308
0.041728 -0.174633 -0.273208
0.036639 -0.189800 -0.270199
0.040814 -0.167212 -0.257011
0.042428 -0.156831 -0.259308
0.038990 -0.145453 -0.242339
0.037817 -0.118628 -0.240142
0.043484 -0.120262 -0.255679
0.039383 -0.117776 -0.248969
0.049534 -0.112736 -0.261046
0.037537 -0.084334 -0.237795
0.040981 0.230566 0.297074
0.048712 0.224094 0.316765
0.044453 0.222088 0.303806
0.047977 0.203239 0.289771
0.051777 0.206416 0.313217
0.053490 0.198021 0.315377
-0.037733 0.239996 0.300049
-0.040322 0.229381 0.302582
-0.047930 0.217724 0.304559
-0.045260 0.211769 0.295257
-0.045787 0.212019 0.285735
-0.053405 0.187350 0.297561
-0.005751 0.162786 0.318174
-0.005548 0.159044 0.296447
-0.004971 0.161758 0.322380
0.000221 0.153821 0.339845
-0.003341 0.132188 0.371336
0.008719 0.110745 0.287580
0.015634 0.114569 0.286026
0.016666 0.119902 0.287347
0.021042 0.109881 0.279931
0.009716 0.134893 0.297965
0.007283 0.138650 0.301142
0.030083 0.121936 0.273173
0.024716 0.148821 0.290464
0.014746 0.144416 0.302076
0.034632 0.132623 0.264935
0.026868 0.142712 0.284139
0.039940 0.122490 0.253504
0.036222 0.142913 0.260417
0.038057 0.159449 0.225309
0.038644 0.156500 0.226563
0.030848 0.150273 0.277023
0.035581 0.158121 0.261741
0.028033 0.160107 0.298002
0.036216 0.170261 0.244043
0.032997 0.177573 0.232301
0.035478 0.170430 0.267062
0.036978 0.164716 0.254996
0.027592 0.190978 0.234115
0.019454 0.193482 0.222700
0.035787 0.177547 0.258086
0.032193 0.188967 0.243973
0.014865 0.202050 0.227652
0.026187 0.205593 0.245686
0.034478 0.198065 0.264041
0.036936 0.185798 0.269065
0.033552 0.168176 0.285585
0.036830 0.179230 0.289929
0.027065 0.159080 0.305010
0.019201 0.152704 0.325451
0.007212 0.146718 0.323644
0.036348 0.172036 0.302917
0.039026 0.177089 0.305505
0.038235 0.194287 0.294858
0.042636 0.187095 0.315939
0.040155 0.185559 0.327368
0.028116 0.158225 0.327208
0.033009 0.165201 0.335574
0.011609 0.143840 0.337031
0.012055 0.143120 0.339324
0.020665 0.148540 0.345976
0.010339 0.138061 0.346626
0.013166 0.135440 0.351566
0.005344 0.114863 0.371891
0.009360 0.112916 0.381271
0.019895 0.135118 0.365183
0.026321 0.158948 0.351221
0.019167 0.141927 0.403818
0.020975 0.144644 0.408568
0.015520 0.144021 0.419073
-0.002493 0.144564 0.427949
-0.017610 0.142745 0.414725
-0.021675 0.143386 0.395821
-0.026777 0.150377 0.397484
-0.026455 0.164735 0.379029
-0.020961 0.135854 0.367932
-0.002058 0.107931 0.394565
-0.014754 0.116730 0.385825
-0.007706 0.127663 0.354819
0.000431 0.126948 0.353750
-0.019842 0.138031 0.355275
-0.004866 0.140750 0.305149
0.001045 0.103875 0.286409
-0.008471 0.114086 0.289716
-0.021706 0.119831 0.283694
-0.025946 0.131312 0.283517
-0.028663 0.122962 0.278268
-0.028390 0.129184 0.279480
-0.026706 0.132020 0.282971
-0.036606 0.137038 0.263985
-0.037667 0.142186 0.260298
-0.043427 0.138639 0.239321
-0.041268 0.150077 0.229815
-0.033760 0.151081 0.273324
-0.038265 0.157927 0.256368
-0.036579 0.177710 0.240865
-0.039000 0.159584 0.248332
-0.036275 0.176579 0.236088
-0.035900 0.173305 0.231181
-0.037215 0.160440 0.261200
-0.038195 0.165322 0.250416
-0.037151 0.175877 0.258745
-0.024726 0.200569 0.235918
-0.027393 0.201776 0.241884
-0.011664 0.213371 0.238703
-0.035466 0.196440 0.259231
0.021221 0.208467 0.243315
-0.009421 0.221073 0.246855
