-0.039875 0.055374 -0.319328
-0.029197 0.069271 -0.333794
-0.019292 0.081672 -0.339463
-0.033258 0.090914 -0.346429
-0.054072 0.073995 -0.335788
-0.028106 0.101275 -0.349270
-0.035603 0.105761 -0.350795
-0.011022 0.103059 -0.348194
-0.010957 0.132890 -0.371032
-0.031329 0.143041 -0.360019
-0.042599 0.112639 -0.351764
-0.041316 0.142528 -0.356267
-0.027030 0.166096 -0.357361
-0.062891 0.150110 -0.346004
-0.010355 0.170012 -0.360327
-0.043611 0.172598 -0.349503
-0.060071 0.155246 -0.346220
-0.074485 0.162997 -0.338173
0.001068 0.173228 -0.357196
0.009853 0.154556 -0.359148
-0.032692 0.177470 -0.351535
-0.003118 0.189611 -0.348872
-0.030109 0.185189 -0.347474
-0.053822 0.186762 -0.339477
-0.004201 0.210472 -0.330742
-0.038705 0.199486 -0.335285
-0.022492 0.216039 -0.322903
-0.016353 0.223871 -0.315865
-0.058682 0.203510 -0.319880
-0.035160 0.208228 -0.326981
-0.043647 0.203438 -0.329176
0.005484 0.201784 -0.339330
0.019461 0.190208 -0.343651
0.002334 0.241252 -0.283961
0.024288 0.209495 -0.324300
0.029142 0.200072 -0.332912
0.008911 0.241512 -0.282298
0.025418 0.224265 -0.307266
0.039435 0.185594 -0.340003
0.039581 0.205759 -0.320937
0.038662 0.190457 -0.337708
-0.017086 0.242670 -0.280640
-0.006019 0.239083 -0.288109
-0.026398 0.231710 -0.299144
-0.019988 0.232584 -0.300398
0.031850 0.239009 -0.269851
0.025814 0.235770 -0.283071
0.018704 0.242568 -0.272838
-0.049072 0.232309 -0.283703
-0.049060 0.226437 -0.297990
0.045065 0.218683 -0.298859
0.048355 0.224182 -0.281019
0.041493 0.215699 -0.308652
0.054025 0.207306 -0.306083
-0.061147 0.215574 -0.302650
-0.072660 0.205496 -0.303405
-0.070474 0.191337 -0.322417
-0.077984 0.187157 -0.316208
-0.078592 0.193309 -0.309667
-0.088603 0.179632 -0.307498
-0.096946 0.158097 -0.312897
-0.094027 0.157813 -0.316763
-0.081859 0.169803 -0.325341
0.020649 0.145880 -0.357520
0.002804 0.127942 -0.364301
-0.001646 0.119929 -0.357807
0.011225 0.117274 -0.354168
-0.006614 0.087614 -0.340327
0.023469 0.106260 -0.350722
0.032218 0.125224 -0.352611
0.011498 0.080240 -0.339624
0.026461 0.087451 -0.343464
0.019204 0.066625 -0.331461
0.006300 0.056945 -0.319367
-0.001666 0.060722 -0.322882
-0.000086 0.033503 -0.299535
-0.001844 0.021338 -0.283762
0.043833 0.077884 -0.337414
0.036194 0.067165 -0.331997
0.027426 0.055817 -0.319790
0.043289 0.113792 -0.347210
0.044913 0.085591 -0.340498
0.053064 0.075111 -0.331808
0.062236 0.086090 -0.330626
0.057480 0.147894 -0.342838
0.067723 0.132661 -0.337070
0.051472 0.125240 -0.343862
0.048517 0.159649 -0.343893
0.055703 0.169106 -0.338524
0.078887 0.131434 -0.323251
0.069491 0.139410 -0.336657
0.072599 0.166157 -0.320811
0.083974 0.162910 -0.308244
0.082712 0.156510 -0.313387
0.088599 0.132071 -0.309687
0.084175 0.148592 -0.312881
0.070722 0.173208 -0.318407
0.066269 0.184036 -0.315014
0.084213 0.103051 -0.313617
0.086160 0.102313 -0.310884
0.087407 0.092598 -0.307911
0.095423 0.147891 -0.288211
0.097851 0.137076 -0.287081
0.100834 0.126104 -0.280951
0.097255 0.092629 -0.293158
0.076958 0.186955 -0.286527
0.084000 0.172605 -0.293044
0.066985 0.194940 -0.302874
0.098632 0.145366 -0.279204
0.093964 0.165380 -0.274654
0.076573 0.189603 -0.282983
0.078990 0.189210 -0.276409
0.067557 0.199996 -0.291635
0.052869 0.224549 -0.270750
0.058815 0.215051 -0.280259
0.097648 0.163053 -0.261059
0.043684 0.242589 -0.232127
0.043728 0.243841 -0.226199
0.051880 0.230557 -0.253447
0.075013 0.203956 -0.258899
0.079948 0.197277 -0.245968
0.087851 0.186059 -0.229591
0.095920 0.166758 -0.245053
0.095252 0.167240 -0.234392
0.062897 0.222964 -0.241359
0.065883 0.221162 -0.235800
0.064696 0.222017 -0.237271
0.076483 0.209138 -0.216849
0.084284 0.192808 -0.224888
0.074601 0.208481 -0.237142
0.021534 0.251443 -0.236111
0.035774 0.242694 -0.250692
0.013520 0.257534 -0.222084
0.033560 0.239732 -0.266255
0.009295 0.252612 -0.247056
0.031185 0.243383 -0.255274
-0.014939 0.248895 -0.265179
0.004358 0.251257 -0.255730
0.004801 0.260335 -0.222485
0.056011 0.238358 -0.194872
0.049441 0.246377 -0.185749
0.053465 0.237683 -0.211046
0.033315 0.252803 -0.204744
0.030316 0.256974 -0.189267
0.040294 0.252926 -0.189079
0.042187 0.247066 -0.215821
-0.017153 0.254269 -0.245277
-0.008597 0.260016 -0.223820
-0.034165 0.249564 -0.246206
-0.043737 0.244795 -0.252434
-0.029351 0.254603 -0.232754
0.009307 0.268997 -0.174702
0.039714 0.259452 -0.156477
0.007146 0.274157 -0.154624
-0.052136 0.247701 -0.221916
-0.040325 0.249546 -0.236823
-0.048566 0.249268 -0.221380
-0.002279 0.274514 -0.155401
-0.006170 0.272937 -0.163154
-0.012043 0.262913 -0.212427
-0.019097 0.266697 -0.193824
-0.063165 0.233113 -0.254961
-0.070499 0.226549 -0.254731
-0.065784 0.230773 -0.254860
-0.062129 0.230463 -0.268098
-0.068262 0.220140 -0.279126
-0.050065 0.258808 -0.168287
-0.053126 0.254071 -0.186605
-0.028949 0.259808 -0.208471
-0.023203 0.261247 -0.213271
-0.028028 0.265174 -0.184047
-0.024215 0.269649 -0.170693
-0.043342 0.261286 -0.170476
-0.037221 0.267109 -0.155537
-0.069367 0.231567 -0.236235
-0.082210 0.218654 -0.239764
-0.073272 0.231390 -0.217397
-0.080291 0.225858 -0.211288
-0.065802 0.244418 -0.186599
-0.060242 0.246697 -0.202366
-0.084287 0.204583 -0.276718
-0.093270 0.191414 -0.273094
-0.086123 0.197716 -0.283393
-0.088608 0.184749 -0.300417
-0.089065 0.185504 -0.297350
-0.092475 0.182736 -0.291838
-0.090640 0.206256 -0.233712
-0.086245 0.217254 -0.220489
-0.088084 0.213519 -0.221825
-0.097835 0.192636 -0.237270
-0.102173 0.185759 -0.234259
-0.098906 0.189603 -0.247596
-0.098475 0.191476 -0.238032
-0.075604 0.235470 -0.183701
-0.080015 0.230105 -0.189435
-0.084455 0.231187 -0.158559
-0.097378 0.199977 -0.201828
-0.095534 0.204755 -0.195030
-0.093571 0.205935 -0.208100
-0.103518 0.195501 -0.165025
-0.089350 0.224026 -0.156880
-0.088455 0.219657 -0.187402
-0.087447 0.223939 -0.175507
-0.090752 0.220917 -0.159104
-0.110882 0.162665 -0.229666
-0.110715 0.164518 -0.237657
-0.104646 0.180018 -0.212972
-0.107945 0.181825 -0.162644
-0.107236 0.186519 -0.159790
-0.106965 0.170497 -0.206636
-0.109981 0.161767 -0.218131
-0.109677 0.159318 -0.208975
-0.110456 0.157666 -0.212062
-0.107841 0.164948 -0.277553
-0.108599 0.163121 -0.276639
-0.117501 0.142100 -0.257987
-0.103951 0.154203 -0.303248
-0.112928 0.142496 -0.281865
-0.096861 0.152264 -0.314848
-0.108625 0.133254 -0.300774
-0.119526 0.127913 -0.247668
-0.120250 0.126426 -0.262217
-0.084181 0.141277 -0.336535
-0.087769 0.125824 -0.330434
-0.074573 0.119931 -0.338415
-0.076969 0.142187 -0.341641
-0.059680 0.120589 -0.346803
-0.059882 0.114659 -0.346083
-0.111472 0.106484 -0.295001
-0.112901 0.121485 -0.290202
-0.104260 0.106884 -0.306348
-0.110425 0.122815 -0.299338
-0.123952 0.091817 -0.256285
-0.120198 0.115725 -0.265162
-0.123088 0.094316 -0.258631
-0.069431 0.091401 -0.336689
-0.077153 0.086375 -0.330419
-0.106623 0.086323 -0.300629
-0.092825 0.087578 -0.318242
-0.073946 0.083067 -0.331272
-0.074009 0.071791 -0.326854
-0.094796 0.066545 -0.309052
-0.105199 0.074158 -0.298004
-0.119919 0.085426 -0.266935
-0.116110 0.083114 -0.277422
-0.108915 0.050950 -0.281560
-0.081462 0.071689 -0.322565
-0.088059 0.065858 -0.316469
-0.092232 0.038918 -0.299106
-0.089537 0.064401 -0.314287
-0.075921 0.032688 -0.307610
-0.119434 0.051858 -0.253061
-0.122553 0.066345 -0.250657
-0.111429 0.044840 -0.271498
-0.103466 0.036091 -0.284733
-0.112365 0.027126 -0.256933
-0.108589 0.032384 -0.271484
-0.072244 0.020526 -0.301566
-0.084768 0.018667 -0.298278
-0.057925 0.013872 -0.296841
-0.053633 -0.021654 -0.285762
-0.048736 -0.017558 -0.278633
-0.063278 -0.027679 -0.294350
-0.050284 -0.038221 -0.280385
-0.049015 -0.046287 -0.260223
-0.055171 -0.039447 -0.291469
-0.054194 -0.036826 -0.288382
-0.049080 -0.068692 -0.266957
-0.052328 -0.052392 -0.288574
-0.048372 -0.068304 -0.279406
-0.063581 -0.033141 -0.295634
-0.056300 -0.056627 -0.296802
-0.049419 -0.077279 -0.275795
-0.050389 -0.086681 -0.275535
-0.057577 -0.066492 -0.297166
-0.065547 -0.045228 -0.300072
-0.078516 -0.018677 -0.292036
-0.083889 -0.030812 -0.285494
-0.090180 -0.024348 -0.279117
-0.075027 -0.046259 -0.296968
-0.086609 -0.044158 -0.281873
-0.087888 -0.045857 -0.278163
-0.053943 -0.092106 -0.278158
-0.095979 -0.037914 -0.259392
-0.095412 -0.021442 -0.268654
-0.055260 -0.102132 -0.275907
-0.052612 -0.101471 -0.268331
-0.098642 -0.000857 -0.271194
-0.098658 -0.000486 -0.271350
-0.111805 0.021042 -0.252841
-0.112653 0.020478 -0.249824
-0.061547 -0.125592 -0.275456
-0.057326 -0.148554 -0.263823
-0.065843 -0.092002 -0.288365
-0.066952 -0.133563 -0.278510
-0.075681 -0.077639 -0.288157
-0.084372 -0.078926 -0.271936
-0.086718 -0.071385 -0.268030
-0.084537 -0.110605 -0.263157
-0.092406 -0.059746 -0.255055
-0.085508 -0.105989 -0.255717
-0.091154 -0.062703 -0.251621
-0.096560 -0.041967 -0.251562
-0.104336 -0.013731 -0.243801
-0.106228 -0.012383 -0.227101
-0.106227 -0.011633 -0.229363
-0.111718 0.005493 -0.217023
-0.092752 -0.035918 -0.227326
-0.092563 -0.032034 -0.223042
-0.082659 -0.064345 -0.240941
-0.115431 0.022991 -0.216147
-0.114388 0.015515 -0.223678
-0.120043 0.064360 -0.222098
-0.120049 0.064449 -0.222165
-0.120442 0.084576 -0.221395
-0.123484 0.081259 -0.247479
-0.122458 0.067055 -0.245363
-0.119741 0.119603 -0.237830
-0.120940 0.097379 -0.226560
-0.116766 0.131319 -0.223703
-0.116445 0.130680 -0.220567
-0.118005 0.124766 -0.227567
-0.074626 -0.096544 -0.246462
-0.118135 0.104468 -0.212010
-0.114227 0.117742 -0.196937
-0.114556 0.130372 -0.205688
-0.112565 0.081578 -0.190221
-0.118673 0.094652 -0.211967
-0.119114 0.061757 -0.210404
-0.114375 0.048844 -0.196411
-0.114260 0.138889 -0.180488
-0.114700 0.116945 -0.180218
-0.114154 0.134081 -0.182237
-0.107611 0.189100 -0.149561
-0.110978 0.169205 -0.162284
-0.112779 0.155419 -0.175790
-0.111093 0.170360 -0.158815
-0.116121 0.098920 -0.169581
-0.116894 0.118157 -0.159815
-0.116351 0.100987 -0.167161
-0.115982 0.094156 -0.167715
-0.109371 0.064154 -0.181287
-0.111031 0.193288 -0.105648
-0.111508 0.192701 -0.102333
-0.107531 0.192505 -0.142208
-0.109277 0.199215 -0.099717
-0.104068 0.199754 -0.139943
-0.105510 0.195986 -0.144298
-0.120665 0.144070 -0.127802
-0.120813 0.140267 -0.127167
-0.123110 0.133045 -0.112001
-0.118412 0.116763 -0.146223
-0.119666 0.130476 -0.136122
-0.115266 0.182486 -0.094037
-0.117728 0.152506 -0.138345
-0.119460 0.153109 -0.123802
-0.118383 0.151922 -0.134559
-0.090765 0.228863 -0.105943
-0.098205 0.216917 -0.103982
-0.092759 0.226803 -0.095923
-0.089871 0.227682 -0.127948
-0.120471 0.089681 -0.133188
-0.122950 0.113363 -0.114264
-0.122763 0.100216 -0.115655
-0.125183 0.086619 -0.097069
-0.119966 0.092106 -0.137058
-0.123496 0.119202 -0.110098
-0.085040 0.232922 -0.138987
-0.086503 0.230832 -0.146335
-0.066862 0.253396 -0.100273
-0.079975 0.237806 -0.136059
-0.063274 0.253974 -0.136872
-0.084051 0.232535 -0.152986
-0.058722 0.258621 -0.134067
-0.064694 0.251643 -0.150340
-0.105006 0.209838 -0.072901
-0.110103 0.203382 -0.059038
-0.110855 0.201844 -0.061293
-0.118227 0.176212 -0.074796
-0.116328 0.181314 -0.083091
-0.118327 0.176906 -0.069418
-0.085284 0.238089 -0.087438
-0.087884 0.236705 -0.078328
-0.098164 0.221007 -0.073359
-0.102428 0.215587 -0.062308
-0.095119 0.226059 -0.073323
-0.051593 0.264521 -0.099449
-0.045282 0.267082 -0.102618
-0.055372 0.260094 -0.141144
-0.027932 0.273382 -0.124161
-0.026955 0.272719 -0.141964
-0.025627 0.274190 -0.127781
-0.031579 0.272720 -0.108434
-0.072992 0.250901 -0.053434
-0.062458 0.258993 -0.072243
-0.065694 0.256519 -0.065685
-0.049437 0.266748 -0.068538
-0.053191 0.264758 -0.078640
-0.106527 0.209184 -0.048568
-0.089465 0.234318 -0.035526
-0.086465 0.234864 -0.015219
-0.083223 0.240010 -0.018251
-0.082161 0.242903 -0.044573
-0.013300 0.276457 -0.110054
-0.015532 0.275442 -0.138603
-0.019726 0.276107 -0.119917
0.007258 0.275719 -0.130799
-0.002251 0.276153 -0.118619
0.021661 0.269734 -0.123721
0.026267 0.266919 -0.135917
0.009273 0.273488 -0.152746
-0.038397 0.270428 -0.053007
-0.037173 0.271389 -0.065199
-0.043807 0.268555 -0.052141
-0.010640 0.276699 -0.080504
0.004411 0.276967 -0.089139
-0.058903 0.261520 -0.045273
-0.076623 0.244406 -0.009894
-0.055081 0.264267 -0.044427
-0.040835 0.269351 -0.048577
-0.104866 0.208699 -0.028708
-0.104463 0.206622 -0.007918
-0.107606 0.201751 -0.006949
-0.109215 0.202162 -0.028948
-0.066371 0.250314 0.003507
-0.076777 0.242813 0.001283
-0.057401 0.257023 0.003663
-0.084143 0.236593 -0.004984
-0.081295 0.231651 0.032452
-0.094064 0.218434 0.008196
-0.101142 0.208624 0.004831
-0.036453 0.267940 -0.007576
-0.027381 0.273417 -0.041154
-0.115565 0.182736 -0.030661
-0.125903 0.151146 -0.047680
-0.112013 0.197284 -0.036367
-0.110923 0.198732 -0.028683
-0.119023 0.176527 -0.055128
-0.126429 0.147947 -0.064723
-0.126564 0.149097 -0.053416
-0.016730 0.275477 -0.046437
0.002530 0.275535 -0.046774
-0.000049 0.275878 -0.054329
0.007141 0.276161 -0.063454
-0.036987 0.267440 -0.003951
-0.036634 0.266197 0.009505
-0.028918 0.268359 0.011886
-0.059720 0.251213 0.031449
-0.058996 0.251429 0.033426
-0.047839 0.261230 0.021433
0.003101 0.273091 -0.010490
-0.006392 0.273770 -0.020194
-0.040419 0.261723 0.042312
-0.041503 0.261019 0.045964
-0.017383 0.269774 0.030543
-0.017236 0.272454 -0.001115
0.028039 0.269003 -0.051994
0.024815 0.270099 -0.051968
0.019322 0.270361 -0.027056
0.017537 0.270840 -0.025922
0.020584 0.268494 -0.008225
0.034108 0.266288 -0.041389
0.015462 0.272966 -0.046398
-0.008406 0.268763 0.042109
0.036289 0.265902 -0.076268
0.019441 0.272893 -0.088026
0.019718 0.272318 -0.097055
0.042069 0.261936 -0.105617
0.042336 0.260504 -0.125429
0.016634 0.264398 0.042753
0.013049 0.265882 0.039995
0.027638 0.261114 0.039752
0.023867 0.264045 0.024460
0.000721 0.266945 0.056477
0.003279 0.264260 0.076443
0.008142 0.262302 0.080134
0.016939 0.260790 0.069930
0.064026 0.238114 -0.150743
0.057697 0.244364 -0.149855
0.049666 0.253041 -0.138043
0.053951 0.248982 -0.136194
0.054865 0.246243 -0.157697
0.045824 0.255037 -0.158399
0.070894 0.224831 -0.189377
0.052091 0.255599 -0.080181
0.043685 0.262600 -0.059934
0.044287 0.262234 -0.052662
0.074571 0.223465 -0.162551
0.074007 0.225779 -0.156315
0.073461 0.219668 -0.192254
0.071765 0.224512 -0.184129
0.079695 0.206191 -0.200840
0.089858 0.193654 -0.166511
0.086857 0.198620 -0.170066
0.079480 0.206304 -0.202362
0.068459 0.236283 -0.124937
0.052438 0.252447 -0.108865
0.058797 0.245823 -0.117254
0.063429 0.245830 -0.077277
0.066295 0.242758 -0.081782
0.078577 0.224560 -0.110428
0.079809 0.219644 -0.134651
0.090130 0.205864 -0.108696
0.072954 0.231466 -0.129606
0.089558 0.203688 -0.123332
0.085011 0.208095 -0.141581
0.082689 0.210579 -0.149900
0.090800 0.211081 -0.060808
0.086146 0.217476 -0.069606
0.080797 0.228718 -0.053752
0.090389 0.208817 -0.082015
0.094904 0.202347 -0.075293
0.087571 0.211985 -0.092618
0.054716 0.253576 -0.048362
0.063601 0.245827 -0.040401
0.071376 0.240522 -0.052055
0.081856 0.226157 -0.049932
0.090766 0.210189 -0.043570
0.041808 0.260355 -0.016636
0.046958 0.258285 -0.033127
0.059309 0.239087 0.039781
0.063631 0.241167 0.004346
0.060701 0.240601 0.022760
0.048582 0.248957 0.027513
0.043834 0.250727 0.037815
0.044656 0.248399 0.048481
0.083017 0.218474 -0.018555
0.086904 0.213412 -0.024723
0.096774 0.201656 -0.048903
0.074562 0.228759 -0.003568
0.064792 0.233021 0.036451
0.077513 0.224869 -0.005619
0.078351 0.221421 0.002831
0.052401 0.234636 0.093095
0.050393 0.243989 0.049920
0.049926 0.237131 0.089260
0.085178 0.201813 0.037865
0.066860 0.227292 0.046269
0.074127 0.215555 0.048986
0.084585 0.205820 0.026306
0.070519 0.215273 0.068422
0.072730 0.214556 0.059646
0.068133 0.223585 0.052651
0.028487 0.250830 0.098317
0.044951 0.240294 0.091527
0.008288 0.259513 0.098825
0.021784 0.254073 0.099253
0.069990 0.213927 0.076244
0.070635 0.210284 0.086995
0.069259 0.214230 0.079209
0.048799 0.230785 0.134068
0.030617 0.248800 0.101368
0.056801 0.225426 0.107423
0.059484 0.220413 0.113227
0.051626 0.228588 0.129243
0.016180 0.254845 0.110789
0.018964 0.250156 0.139823
0.037119 0.239721 0.130734
0.031413 0.243636 0.132667
0.025626 0.248922 0.125510
0.089275 0.166858 0.067780
0.088638 0.173632 0.059954
0.082002 0.186788 0.083668
0.082724 0.185973 0.079958
0.070468 0.201674 0.133383
0.056365 0.218435 0.148937
0.066679 0.208646 0.120568
0.099246 0.153264 0.028441
0.084117 0.196843 0.050637
0.097438 0.159113 0.030192
0.090309 0.170828 0.053128
0.092798 0.176680 0.031049
0.099646 0.163924 0.011260
0.094529 0.179443 0.018091
0.090622 0.187012 0.028894
0.097166 0.173032 0.012503
0.086073 0.159560 0.097541
0.089017 0.165033 0.072373
0.089580 0.144078 0.097612
0.083262 0.166507 0.117234
0.083215 0.169039 0.105435
0.086304 0.156629 0.100777
0.102567 0.140037 0.018725
0.102013 0.133742 0.022617
0.099765 0.103573 0.039123
0.099094 0.117863 0.040521
0.098862 0.099834 0.044485
0.091196 0.138661 0.089561
0.094788 0.118176 0.067186
0.095944 0.104859 0.061419
0.092510 0.125231 0.082646
0.105452 0.160430 -0.019460
0.104310 0.170685 -0.029650
0.100125 0.174989 -0.006035
0.103623 0.166733 -0.017244
0.102486 0.178029 -0.031631
0.103158 0.176886 -0.035581
0.098967 0.194549 -0.043873
0.105835 0.110926 -0.001174
0.105546 0.088822 -0.000716
0.105726 0.126240 0.000590
0.105755 0.103475 -0.001136
0.101014 0.088879 0.029768
0.106503 0.111449 -0.005941
0.106856 0.098947 -0.009549
0.106216 0.109904 -0.003897
0.108576 0.131833 -0.019987
0.107549 0.145779 -0.011198
0.112198 0.145880 -0.072666
0.105353 0.172484 -0.062493
0.110704 0.153578 -0.057458
0.098593 0.191901 -0.087892
0.100095 0.190205 -0.069338
0.101885 0.182242 -0.077679
0.107987 0.084401 -0.015905
0.110433 0.111070 -0.032999
0.110639 0.127099 -0.035698
0.111062 0.132004 -0.038678
0.107291 0.088031 -0.012060
0.112743 0.141554 -0.051235
0.112901 0.111228 -0.054809
0.112696 0.145888 -0.051736
0.099817 0.183691 -0.098919
0.103796 0.156656 -0.125347
0.107446 0.150298 -0.110802
0.104998 0.165185 -0.098213
0.097460 0.183018 -0.121274
0.100769 0.165867 -0.129686
0.096262 0.193299 -0.108460
0.112342 0.119125 -0.074924
0.112899 0.087823 -0.060170
0.112037 0.086271 -0.086291
0.112239 0.085191 -0.080245
0.094946 0.173631 -0.166455
0.101912 0.149735 -0.155982
0.096793 0.173444 -0.150549
0.090866 0.184468 -0.191288
0.091080 0.185212 -0.186330
0.090068 0.186341 -0.197267
0.091353 0.190108 -0.169344
0.090482 0.179983 -0.217692
0.093698 0.168616 -0.218777
0.106393 0.145422 -0.126172
0.104479 0.127203 -0.141314
0.109188 0.138429 -0.107566
0.105994 0.116403 -0.131957
0.106499 0.111163 -0.129012
0.107141 0.094551 -0.124383
0.108320 0.105446 -0.115384
0.105325 0.092608 -0.138290
0.109866 0.083876 -0.103456
0.110307 0.107112 -0.100164
0.101102 0.120429 -0.171726
0.098116 0.147113 -0.193963
0.097582 0.145039 -0.199084
0.099893 0.105575 -0.185030
0.103319 0.100143 -0.153726
0.101790 0.102487 -0.167712
0.103564 0.128078 -0.147687
0.103392 0.118209 -0.220539
0.104046 0.118691 -0.226198
0.104213 0.106877 -0.216681
0.100911 0.102862 -0.195471
0.099276 0.135109 -0.203696
0.100036 0.104241 -0.191227
0.099258 0.093747 -0.182007
0.099219 0.083108 -0.171722
0.100526 0.083673 -0.200335
0.096762 0.076719 -0.186429
0.100376 0.058009 -0.136973
0.102547 0.059876 -0.125949
0.100543 0.055215 -0.133210
0.107340 0.077989 -0.115474
0.097169 0.066565 -0.168710
0.097941 0.067867 -0.164596
0.099363 0.064269 -0.149607
0.105850 0.115862 -0.239584
0.105295 0.110830 -0.229339
0.106554 0.097100 -0.227156
0.104242 0.134040 -0.247661
0.108053 0.106348 -0.253342
0.105593 0.092161 -0.267900
0.109121 0.093697 -0.257152
0.097731 0.089430 -0.291780
0.103643 0.079433 -0.269098
0.097025 0.081532 -0.290742
0.104559 0.083612 -0.268623
0.084806 0.060661 -0.300682
0.089095 0.051392 -0.291262
0.095155 0.076524 -0.292929
0.108543 0.070646 -0.248181
0.107121 0.068275 -0.238462
0.105301 0.053084 -0.252630
0.103888 0.049872 -0.255081
0.071731 0.030173 -0.301951
0.080907 0.051673 -0.301475
0.071505 0.057164 -0.314170
0.060250 0.058927 -0.321294
0.095161 0.033718 -0.269759
0.085588 0.007139 -0.273166
0.098776 0.034965 -0.261109
0.078128 0.018178 -0.288746
0.086570 0.033869 -0.286462
0.105946 0.087501 -0.220063
0.106086 0.061396 -0.231820
0.104283 0.048040 -0.206752
0.104849 0.062488 -0.211069
0.093869 0.054437 -0.183196
0.059509 0.032107 -0.307502
0.047499 0.049403 -0.320477
0.039340 0.052487 -0.318505
0.038306 0.036657 -0.307520
0.098775 0.039100 -0.200103
0.024836 0.017167 -0.278626
0.016714 0.025322 -0.285842
0.068741 0.020129 -0.300418
0.073406 0.008527 -0.289859
-0.002813 0.010220 -0.268508
0.004570 0.005638 -0.254225
0.003145 0.003392 -0.246981
0.006486 0.003838 -0.236466
0.014278 0.004586 -0.231069
0.022620 0.005717 -0.235084
0.032089 -0.001569 -0.235443
0.024495 0.000273 -0.260672
0.033856 -0.016641 -0.246710
0.026775 0.005458 -0.274628
0.039741 0.007944 -0.291100
0.031509 -0.026911 -0.269892
0.031735 -0.018273 -0.272118
0.041325 0.003064 -0.290740
0.037656 -0.009420 -0.284287
0.035112 -0.062596 -0.257100
0.051254 -0.016395 -0.294628
0.035311 -0.067665 -0.255728
0.036678 -0.078985 -0.259149
0.043598 -0.055308 -0.298632
0.037134 -0.085070 -0.263477
0.057682 -0.022496 -0.293178
0.070673 -0.024428 -0.284859
0.076947 -0.013641 -0.279491
0.060676 -0.061288 -0.296890
0.065185 -0.068415 -0.287686
0.071640 -0.048238 -0.282119
0.075421 -0.030808 -0.278130
0.075951 -0.054301 -0.268433
0.089019 -0.002062 -0.257046
0.087539 -0.010174 -0.256751
0.097941 0.021832 -0.251826
0.099322 0.016825 -0.237303
0.103144 0.034082 -0.213936
0.101669 0.025481 -0.218779
0.087501 -0.026069 -0.236880
0.094103 0.000542 -0.237577
0.082358 -0.039657 -0.253021
0.094718 0.009632 -0.210131
0.072760 -0.073453 -0.265033
0.075356 -0.064456 -0.250636
0.069696 -0.064198 -0.241221
0.091694 -0.011956 -0.223226
0.074311 -0.049937 -0.235262
0.086192 0.001265 -0.205973
0.079441 -0.003369 -0.202418
0.071441 0.006956 -0.197597
0.073082 -0.008130 -0.206318
0.068979 0.008050 -0.197274
0.074523 -0.037612 -0.223491
0.059795 -0.023793 -0.218110
0.052704 -0.020586 -0.220028
0.040415 -0.009017 -0.225579
0.045213 -0.051678 -0.243158
0.053033 -0.001021 -0.208400
0.054137 0.011522 -0.200153
0.037147 -0.074298 -0.254168
0.052095 -0.081588 -0.245338
0.069822 -0.082214 -0.251155
0.044381 -0.113817 -0.251120
0.065522 -0.113260 -0.245720
0.069531 -0.081216 -0.272617
0.068420 -0.088591 -0.271064
0.065207 -0.105418 -0.273797
0.068192 -0.110477 -0.267254
0.056266 -0.098907 -0.284343
0.045407 -0.087189 -0.288082
0.056934 -0.110018 -0.282660
0.038874 -0.110741 -0.268655
0.048756 -0.109104 -0.282182
0.045518 -0.121951 -0.274768
0.045289 -0.136262 -0.270499
0.046901 -0.142829 -0.271624
0.059968 -0.138376 -0.278226
0.065765 -0.117724 -0.271042
0.073770 -0.155735 -0.249683
0.050763 -0.122939 -0.245173
0.046924 -0.137230 -0.248643
0.043259 -0.178834 -0.240178
0.066077 -0.180180 -0.227703
0.048069 -0.176364 -0.259235
0.062636 -0.175162 -0.263814
0.070527 -0.186314 -0.232535
0.070682 -0.179810 -0.228287
0.077440 -0.176657 -0.232092
0.068607 -0.165057 -0.237921
0.074717 -0.166387 -0.243855
0.077986 -0.167393 -0.249127
0.080921 -0.175718 -0.246642
0.080418 -0.173267 -0.252127
0.064462 -0.174334 -0.273971
-0.069912 -0.156140 -0.276382
-0.090142 -0.172098 -0.262802
-0.098678 -0.182365 -0.249792
-0.100138 -0.182840 -0.242045
-0.086411 -0.177583 -0.228280
-0.091206 -0.187455 -0.231053
-0.091477 -0.188287 -0.240352
-0.092695 -0.185358 -0.254899
-0.085297 -0.189013 -0.249935
-0.072562 -0.180841 -0.259264
-0.072729 -0.187301 -0.252636
-0.061020 -0.188212 -0.237878
-0.079886 -0.181486 -0.225585
-0.066496 -0.177897 -0.224402
-0.063002 -0.152109 -0.243562
-0.078128 -0.157879 -0.239568
-0.059536 -0.131557 -0.251267
-0.061173 -0.109799 -0.248440
-0.057590 -0.095066 -0.251720
-0.060328 -0.068155 -0.246644
-0.065750 -0.134959 -0.244835
-0.072102 -0.150891 -0.241878
-0.078912 -0.120050 -0.245204
-0.064171 -0.065278 -0.242892
-0.055263 -0.058978 -0.248578
-0.069374 -0.062055 -0.240626
-0.050966 -0.044311 -0.248723
-0.065733 -0.047417 -0.235077
-0.084078 -0.037986 -0.224445
-0.053180 -0.010215 -0.228276
-0.054658 -0.010684 -0.226902
-0.078033 -0.013504 -0.211208
-0.067795 -0.024391 -0.221397
-0.092101 -0.005121 -0.203726
-0.105801 -0.003343 -0.214429
-0.057073 0.001568 -0.214148
-0.049897 0.001452 -0.221083
-0.080055 0.006316 -0.198959
-0.104109 0.013065 -0.203697
-0.076900 0.016459 -0.193661
-0.110908 0.014001 -0.209793
-0.106676 0.043751 -0.187805
-0.099251 0.039325 -0.167373
-0.109382 0.044862 -0.151147
-0.111281 0.061292 -0.164912
-0.108810 0.056212 -0.176969
-0.118725 0.084179 -0.139963
-0.120707 0.068975 -0.113129
-0.117122 0.074670 -0.140042
-0.120827 0.078596 -0.121959
-0.097865 0.033713 -0.158721
-0.104254 0.040526 -0.155565
-0.075868 0.020696 -0.182066
-0.112925 0.036243 -0.111239
-0.111155 0.043884 -0.142767
-0.124354 0.070817 -0.091022
-0.111831 0.036527 -0.121028
-0.093883 0.018298 -0.134865
-0.104622 0.036436 -0.145571
-0.106454 0.031980 -0.128616
-0.125943 0.073715 -0.074657
-0.119974 0.051747 -0.074205
-0.118533 0.046768 -0.077015
-0.127442 0.089021 -0.058522
-0.127142 0.103124 -0.066549
-0.127185 0.080501 -0.066738
-0.126514 0.108337 -0.084934
-0.127082 0.115799 -0.066161
-0.127059 0.130994 -0.061828
-0.126710 0.133713 -0.075676
-0.085867 0.005181 -0.128207
-0.086929 0.007933 -0.131573
-0.086534 0.012377 -0.143736
-0.124881 0.082079 -0.030131
-0.125189 0.095418 -0.033203
-0.125745 0.132535 -0.039952
-0.125439 0.128428 -0.037741
-0.125316 0.090333 -0.033495
-0.113697 0.028855 -0.058914
-0.119648 0.049699 -0.060466
-0.117106 0.040585 -0.055621
-0.115706 0.036626 -0.074182
-0.117208 0.041263 -0.062059
-0.124667 0.136429 -0.031770
-0.121579 0.126487 -0.009287
-0.121593 0.104080 -0.011104
-0.121682 0.114482 -0.010981
-0.121599 0.153737 -0.019758
-0.113398 0.184575 -0.014509
-0.116890 0.175566 -0.024289
-0.112656 0.187009 -0.013384
-0.111686 0.049330 -0.002099
-0.106882 0.028934 -0.002980
-0.109851 0.040216 -0.004022
-0.108649 0.032747 -0.007078
-0.108688 0.022376 -0.024502
-0.120216 0.058313 -0.033831
-0.108018 0.029802 -0.008053
-0.116520 0.044316 -0.034978
-0.101553 0.195000 0.037813
-0.118977 0.155081 -0.002868
-0.105746 0.194379 0.016158
-0.116867 0.156874 0.006071
-0.096549 0.211757 0.019612
-0.105837 0.201486 0.004614
-0.093699 0.211419 0.037314
-0.089403 0.217715 0.038451
-0.112792 0.163639 0.019168
-0.107803 0.168543 0.039946
-0.110729 0.163102 0.031351
-0.117811 0.154406 0.004280
-0.111450 0.149036 0.047037
-0.089863 0.212801 0.056497
-0.086587 0.214512 0.082305
-0.092491 0.204484 0.088798
-0.096491 0.199622 0.064043
-0.096920 0.191109 0.081187
-0.096860 0.193205 0.076505
-0.104135 0.173267 0.053796
-0.119644 0.146477 0.003957
-0.115629 0.117026 0.029733
-0.114271 0.134795 0.034244
-0.114038 0.119670 0.037778
-0.113908 0.132652 0.036499
-0.117763 0.107676 0.015762
-0.119542 0.099109 0.003224
-0.120085 0.130289 0.001667
-0.116190 0.105901 0.026224
-0.117871 0.115916 0.015587
-0.102839 0.152186 0.095935
-0.106719 0.146234 0.079025
-0.100055 0.170125 0.091345
-0.100953 0.165961 0.090844
-0.109279 0.117104 0.067343
-0.109501 0.128773 0.063185
-0.107234 0.125793 0.080737
-0.109442 0.137004 0.061857
-0.084945 0.214830 0.098576
-0.072222 0.235923 0.087050
-0.087450 0.211015 0.098392
-0.070961 0.240258 0.054390
-0.068107 0.242064 0.063732
-0.062990 0.245673 0.066273
-0.100468 0.158655 0.117207
-0.102115 0.152195 0.102535
-0.099719 0.162039 0.119553
-0.098949 0.167142 0.106466
-0.042135 0.257043 0.100566
-0.051796 0.252843 0.079036
-0.108732 0.095903 0.072692
-0.108092 0.090784 0.076466
-0.105583 0.123921 0.091495
-0.104726 0.114659 0.118369
-0.104700 0.105779 0.103086
-0.104543 0.120654 0.104070
-0.036740 0.259620 0.085314
-0.030262 0.260609 0.094026
-0.041159 0.260407 0.053322
-0.019697 0.266216 0.062664
-0.020124 0.266594 0.057364
-0.015926 0.267454 0.054421
-0.005779 0.263797 0.081614
-0.036589 0.258739 0.102745
-0.036825 0.258484 0.150477
-0.053018 0.250076 0.112081
-0.041456 0.256399 0.137768
-0.058912 0.246685 0.105365
-0.000458 0.259972 0.117058
0.005772 0.258457 0.117179
-0.023109 0.261483 0.119517
-0.015231 0.261667 0.115608
-0.061803 0.245276 0.139278
-0.052492 0.250377 0.149200
-0.070236 0.235414 0.151256
-0.084783 0.214530 0.150572
-0.066516 0.241355 0.133934
-0.081964 0.219190 0.132390
-0.090817 0.205351 0.118476
-0.079478 0.222536 0.104129
-0.095048 0.184985 0.124527
-0.096913 0.175323 0.132607
-0.098728 0.166112 0.133875
-0.099974 0.159728 0.137035
-0.100118 0.159232 0.129013
-0.046245 0.248643 0.169341
-0.059241 0.240222 0.175186
-0.056538 0.241952 0.174036
-0.068200 0.230431 0.174059
-0.064734 0.239931 0.163515
-0.079026 0.219452 0.160541
-0.065705 0.232868 0.177402
-0.026998 0.256041 0.168067
-0.033860 0.244721 0.210639
-0.049271 0.240310 0.191181
-0.044811 0.244894 0.185124
-0.036206 0.248392 0.192948
-0.071248 0.208215 0.204815
-0.070243 0.212292 0.202198
-0.070878 0.211787 0.201004
-0.089517 0.184380 0.170407
-0.090109 0.184716 0.167632
-0.084769 0.190338 0.186578
-0.099679 0.158265 0.145270
-0.088530 0.200292 0.163377
-0.089860 0.199093 0.158517
-0.059508 0.204490 0.241429
-0.057876 0.224960 0.216509
-0.048382 0.232337 0.215623
-0.075204 0.193550 0.212476
-0.060626 0.201616 0.242089
-0.068061 0.207624 0.214428
-0.068372 0.193955 0.230542
-0.017445 0.250359 0.191191
-0.021967 0.253179 0.181200
-0.000511 0.255782 0.160151
-0.006257 0.255429 0.165620
-0.040561 0.212332 0.251783
-0.042184 0.216030 0.244255
-0.033715 0.220733 0.248323
-0.025557 0.223842 0.245061
-0.026050 0.225040 0.243176
0.001958 0.253437 0.166931
-0.004312 0.243705 0.206396
-0.020232 0.225988 0.243560
-0.017418 0.213715 0.264986
-0.013386 0.210256 0.272276
-0.009346 0.228000 0.242441
0.006800 0.241144 0.205959
0.017479 0.237609 0.204821
0.017895 0.248300 0.156990
0.012283 0.212977 0.266046
0.009790 0.220199 0.252946
0.010715 0.225615 0.242206
0.034762 0.224944 0.191792
0.041584 0.215449 0.202099
0.038092 0.217592 0.207600
0.027372 0.231961 0.193588
0.044302 0.214250 0.199505
0.035265 0.232492 0.166807
0.030549 0.240466 0.154073
0.046823 0.216211 0.188439
0.071236 0.196255 0.153232
0.061654 0.206396 0.161290
0.060388 0.204917 0.169390
0.033950 0.202402 0.258797
0.021576 0.215165 0.253703
0.036562 0.213953 0.223836
0.043547 0.202730 0.235094
0.029124 0.222601 0.221238
0.057428 0.195949 0.198040
0.070963 0.188744 0.169136
0.060960 0.192462 0.193567
0.048887 0.197689 0.221537
0.056144 0.175832 0.238766
0.053477 0.196089 0.209869
0.059652 0.185610 0.210078
0.035003 0.187996 0.279584
0.033858 0.194654 0.271596
0.049398 0.175829 0.266702
0.051738 0.174776 0.260095
0.067259 0.178822 0.198844
0.077457 0.162711 0.169096
0.073480 0.182939 0.166847
0.070101 0.180015 0.184911
0.084134 0.161230 0.128039
0.079343 0.179364 0.139230
0.082205 0.168772 0.130721
0.088489 0.144218 0.121904
0.063462 0.164043 0.231447
0.068856 0.151377 0.221642
0.067529 0.172216 0.204898
0.080547 0.148994 0.170100
0.078696 0.140893 0.190111
0.076362 0.153180 0.185860
0.073289 0.163269 0.188240
0.090093 0.127009 0.117924
0.090016 0.128651 0.110213
0.089944 0.138310 0.114800
0.093202 0.110629 0.078985
0.091155 0.091049 0.091033
0.092735 0.103467 0.081726
0.091703 0.091350 0.115278
0.090660 0.122239 0.132904
0.091838 0.105465 0.129754
0.087959 0.120802 0.158430
0.092912 0.087499 0.137374
0.091132 0.103037 0.143777
0.094626 0.083959 0.064209
0.090994 0.080924 0.083302
0.096365 0.085975 0.056206
0.088223 0.074900 0.099918
0.080862 0.049994 0.096406
0.089264 0.077255 0.102783
0.070134 0.147293 0.219834
0.073275 0.140839 0.212498
0.071681 0.144344 0.216100
0.078926 0.130878 0.198444
0.086102 0.104068 0.172916
0.087410 0.075989 0.167496
0.086457 0.098758 0.171322
0.085249 0.099320 0.177691
0.083537 0.104053 0.184878
0.081154 0.108202 0.194696
0.084277 0.101904 0.181809
0.083418 0.116009 0.185641
0.059721 0.145500 0.256306
0.063535 0.138003 0.247174
0.062371 0.153039 0.243278
0.057350 0.165413 0.253157
0.057902 0.164484 0.251916
0.051025 0.166426 0.272750
0.092199 0.075099 0.142055
0.089675 0.046104 0.155615
0.048637 0.147107 0.294977
0.092352 0.059817 0.139032
0.091238 0.043899 0.128728
0.082248 0.037503 0.103636
0.088007 0.045717 0.116348
0.087922 0.038275 0.165353
0.086874 0.054399 0.170981
0.087101 0.031208 0.115642
0.082081 0.034621 0.194410
0.082685 0.025253 0.193524
0.074968 0.097008 0.219900
0.080163 0.088996 0.198342
0.080503 0.069027 0.196852
0.084790 0.073639 0.179105
0.086252 0.012265 0.169693
0.086007 0.009428 0.170260
0.065907 0.070987 0.234302
0.067739 0.059697 0.229495
0.073777 0.091317 0.222379
0.075487 0.069600 0.216475
0.086675 -0.001966 0.141617
0.089881 0.032121 0.152149
0.084410 -0.007248 0.168840
0.086934 0.002476 0.149435
0.086206 0.024383 0.118593
0.078135 -0.003651 0.124062
0.078916 -0.004265 0.126317
0.071255 0.013121 0.107416
0.074947 0.021755 0.103483
0.075474 -0.017198 0.130336
0.058626 -0.006677 0.111792
0.067770 -0.015279 0.118197
0.061118 0.016948 0.090480
0.078096 0.033646 0.079934
0.071696 0.029939 0.089456
0.083349 0.034190 0.062257
0.082880 0.032654 0.062802
0.081492 0.034822 0.070983
0.101189 0.078810 0.017892
0.094017 0.060999 0.036458
0.100067 0.078514 0.024232
0.089372 0.052740 0.053007
0.104661 0.084126 0.004340
0.049304 -0.006509 0.111964
0.091668 0.034693 0.010361
0.100832 0.067783 0.003725
0.091072 0.038984 0.021298
0.091129 0.029908 0.006125
0.089543 0.025633 0.009639
0.031792 -0.009629 0.133629
0.102477 0.068779 -0.004649
0.106537 0.068818 -0.024527
0.092847 0.031942 -0.001579
0.040703 -0.012438 0.127567
0.051760 -0.009912 0.111235
0.038357 -0.019326 0.133755
0.050110 -0.032206 0.122037
0.060538 -0.028866 0.122256
0.038181 0.003950 0.107517
0.047983 0.007359 0.094460
0.022557 -0.001600 0.110919
0.014039 -0.005406 0.110365
0.042304 0.002922 0.091552
0.001824 -0.009959 0.109767
0.000145 -0.010316 0.110010
-0.003040 -0.011186 0.102381
0.022698 -0.006483 0.093081
0.033843 -0.001343 0.092889
0.004967 -0.022511 0.063914
0.032138 -0.012020 0.075761
0.029918 -0.018283 0.072399
0.026536 -0.017844 0.068866
0.022999 -0.020776 0.060657
0.044142 -0.011552 0.058720
0.053269 -0.001236 0.069791
0.061934 0.006712 0.067908
0.077041 0.020322 0.052674
0.071487 0.015923 0.061128
0.085967 0.020689 0.010127
0.086459 0.022945 0.015800
0.080985 0.019886 0.031853
0.045057 -0.012699 0.052984
0.040342 -0.016446 0.051110
0.001104 -0.026009 0.052398
0.006077 -0.031178 0.032783
0.009022 -0.031555 0.029751
0.012488 -0.034515 0.012208
0.017564 -0.028510 0.036983
0.019973 -0.030208 0.028360
0.042770 -0.019230 0.036406
0.047709 -0.019453 0.024933
0.030664 -0.029943 0.013526
0.051614 -0.015206 0.031030
0.020908 -0.033643 0.011623
0.060974 -0.008434 0.026313
0.070112 0.002233 0.022368
0.071499 0.000036 0.008848
0.035725 -0.032893 -0.003702
0.081032 0.009444 -0.004126
0.086939 0.013333 -0.019235
0.085045 0.013778 -0.008595
0.083522 0.007439 -0.022691
0.109770 0.065186 -0.046609
0.104706 0.054449 -0.034082
0.107782 0.063895 -0.036829
0.099224 0.037123 -0.030018
0.056565 -0.022350 -0.018357
0.105107 0.049135 -0.053411
0.102678 0.040639 -0.053165
0.100975 0.035358 -0.066453
0.107274 0.056970 -0.058725
0.111383 0.072352 -0.065047
0.107897 0.060492 -0.073503
0.107430 0.058153 -0.067819
0.098594 0.041105 -0.120640
0.098894 0.038342 -0.112066
0.099375 0.041602 -0.115168
0.107762 0.067040 -0.100502
0.068810 -0.014115 -0.041452
0.079000 -0.001308 -0.037738
0.067127 -0.014727 -0.028710
0.095370 0.020353 -0.072253
0.079556 -0.000913 -0.069125
0.094969 0.020942 -0.085698
0.089953 0.011404 -0.049124
0.080957 0.000281 -0.051357
0.092006 0.036572 -0.140017
0.072960 0.014663 -0.146583
0.094574 0.029021 -0.112979
0.089751 0.032067 -0.136037
0.053891 -0.025725 -0.034860
0.074574 -0.003539 -0.090676
0.076143 -0.005132 -0.072319
0.073472 0.009750 -0.132860
0.073700 0.009425 -0.131331
0.072442 -0.002666 -0.105634
0.064614 -0.013673 -0.089431
0.060976 -0.020113 -0.063095
0.087460 0.035443 -0.151339
0.086338 0.038265 -0.160222
0.085135 0.042034 -0.174668
0.084778 0.043056 -0.179031
0.083452 0.033377 -0.187485
0.060127 0.019993 -0.188545
0.067295 0.020780 -0.171589
0.060387 0.012603 -0.168238
0.048878 0.011245 -0.181539
0.051196 0.000951 -0.160774
0.017565 0.004619 -0.220432
0.001710 0.001278 -0.203000
0.036862 0.010926 -0.197638
0.027897 0.002612 -0.187233
0.022836 -0.003781 -0.175647
0.009331 -0.004757 -0.180491
0.013964 -0.004477 -0.179102
0.006551 -0.006088 -0.178599
0.004843 -0.014317 -0.162728
0.042494 -0.010128 -0.151933
0.032868 -0.019877 -0.147870
0.045674 -0.012066 -0.141089
0.052794 -0.007541 -0.139283
0.051080 -0.014106 -0.123669
0.069326 -0.003702 -0.111548
0.034686 -0.020013 -0.133444
0.022678 -0.023469 -0.135196
0.003293 -0.026905 -0.131673
0.056210 -0.015829 -0.108138
0.016850 -0.034178 -0.100785
0.017853 -0.033106 -0.104007
-0.004850 -0.029481 -0.126027
-0.004664 -0.033458 -0.110177
0.042817 -0.019483 -0.123888
0.025468 -0.026594 -0.122357
0.042520 -0.023746 -0.111636
-0.004802 -0.036988 -0.088790
0.059897 -0.017267 -0.092287
0.029786 -0.032467 -0.097570
0.021871 -0.034958 -0.092461
0.036107 -0.028082 -0.108729
0.043582 -0.029536 -0.087606
0.015317 -0.037463 -0.069096
0.013006 -0.039256 -0.053092
0.028306 -0.037818 -0.052723
0.001693 -0.040842 -0.049376
0.013397 -0.040248 -0.030643
-0.005161 -0.041417 -0.040331
0.005362 -0.040728 -0.018340
0.003398 -0.039855 -0.006618
0.042456 -0.033051 -0.043554
0.018499 -0.039921 -0.025179
0.042281 -0.032239 -0.025760
0.038738 -0.039769 -0.021775
0.060124 0.027147 0.316750
0.046406 0.013453 0.309607
0.055979 0.020629 0.336805
0.027357 -0.007155 0.317314
0.014660 -0.012224 0.306981
0.045624 0.005070 0.323167
0.028083 -0.008990 0.323632
0.020139 -0.013579 0.322637
0.042330 -0.002701 0.340484
0.052194 0.017182 0.346989
0.041500 -0.002502 0.348240
0.041411 0.003415 0.359340
0.037072 -0.002830 0.358121
0.037011 0.013864 0.371969
0.026977 -0.007706 0.364527
0.025487 -0.002290 0.385454
0.019567 -0.001015 0.393467
0.020892 -0.012335 0.367896
0.017417 -0.014818 0.351933
0.016808 -0.020538 0.399075
0.012134 -0.021584 0.393330
0.007436 -0.018541 0.359610
-0.013135 -0.021645 0.371163
-0.004035 -0.021248 0.327609
-0.006384 -0.011402 0.294494
-0.013793 -0.020167 0.321914
-0.028938 -0.009850 0.303141
-0.020176 -0.020604 0.329112
-0.020597 -0.019544 0.346457
-0.026808 -0.020727 0.335512
-0.049633 0.003011 0.308569
-0.058730 0.013514 0.302793
-0.058276 0.012522 0.304278
-0.046652 -0.002621 0.315972
-0.042590 -0.012344 0.331796
-0.056563 -0.002255 0.333399
-0.037654 -0.011970 0.354524
-0.028802 -0.015164 0.360472
-0.031493 -0.013986 0.373145
-0.052597 0.004376 0.365955
-0.040439 -0.005461 0.374727
-0.043984 0.006988 0.382658
-0.041954 -0.003525 0.377860
-0.040034 0.003293 0.387731
-0.036643 -0.005756 0.391509
-0.027032 -0.022170 0.403653
-0.034090 -0.016671 0.406354
0.005011 -0.030190 0.415568
0.060231 -0.188177 0.172101
0.043586 -0.187542 0.172371
0.053325 -0.188154 0.171069
0.045236 -0.187664 0.184668
0.066238 -0.183798 0.191472
0.066438 -0.169778 0.164255
0.066828 -0.169578 0.153822
0.067244 -0.160476 0.155662
0.059397 -0.175872 0.150226
0.047307 -0.171349 0.148292
0.045342 -0.137170 0.145422
0.049125 -0.115730 0.139933
0.056641 -0.110993 0.136746
0.041033 -0.090990 0.141466
0.039465 -0.080271 0.140727
0.043965 -0.055324 0.133938
0.041313 -0.040057 0.134847
0.053667 -0.047552 0.126869
0.060807 -0.063612 0.131896
0.062519 -0.041764 0.128120
0.068474 -0.060020 0.140709
0.075503 -0.029994 0.138508
0.076722 -0.023653 0.137087
0.065021 -0.052114 0.133422
0.070278 -0.038130 0.134841
0.083356 -0.017365 0.149718
0.081485 -0.019557 0.164155
0.075726 -0.040730 0.161375
0.077063 -0.032446 0.171442
0.073690 -0.052217 0.148019
0.073564 -0.045606 0.169028
0.062056 -0.081105 0.135497
0.070312 -0.067146 0.151860
0.069572 -0.067025 0.155876
0.063121 -0.097931 0.167952
0.063865 -0.118805 0.153346
0.061622 -0.127486 0.146051
0.062146 -0.150469 0.148544
0.060821 -0.151138 0.166985
0.054034 -0.131791 0.174007
0.046835 -0.133503 0.170497
0.051799 -0.140865 0.173593
0.061463 -0.093856 0.171487
0.063343 -0.092056 0.169596
0.063914 -0.069392 0.175844
0.041673 -0.100579 0.173153
0.042877 -0.114150 0.171909
0.037602 -0.106147 0.159479
0.038388 -0.116536 0.155556
0.039463 -0.127318 0.160590
0.040176 -0.155645 0.165067
0.036749 -0.093657 0.159842
0.040824 -0.168423 0.154808
0.033953 -0.077061 0.162504
0.035640 -0.076150 0.147118
0.040140 -0.085811 0.173045
0.034126 -0.076553 0.164702
0.033202 -0.056821 0.157284
0.045090 -0.069844 0.180314
0.065357 -0.055636 0.179239
0.032937 -0.055374 0.167237
0.044821 -0.055488 0.184823
0.032133 -0.032086 0.151835
0.066962 -0.049975 0.179845
0.031198 -0.030895 0.175093
0.031836 -0.026934 0.151594
0.049317 -0.036475 0.191312
0.032370 -0.026693 0.179387
0.024611 -0.009391 0.148942
0.063974 -0.014780 0.196269
0.054210 0.007689 0.213550
0.079822 -0.002481 0.187176
0.064004 0.016008 0.208761
0.074318 0.027277 0.203296
0.028942 -0.008799 0.199694
0.017047 -0.008739 0.148744
0.012362 -0.008359 0.139948
0.019462 -0.011625 0.189179
0.007044 -0.011815 0.155695
0.001732 -0.012512 0.199191
0.028517 -0.008170 0.202311
0.018256 -0.009026 0.231710
0.018326 -0.007625 0.237850
0.012981 -0.003821 0.251553
0.012136 0.000185 0.262199
0.010688 -0.004255 0.290457
0.017842 0.002695 0.260188
0.017709 0.003019 0.286436
0.020078 0.006349 0.275188
0.030642 0.005954 0.291707
0.031615 0.004578 0.245103
0.029495 0.000036 0.239701
0.040087 0.007902 0.234313
0.054681 0.023810 0.303602
0.036908 0.016382 0.277201
0.032842 0.013067 0.260484
0.051128 0.023658 0.231336
0.041652 0.017983 0.246473
0.053930 0.036362 0.236078
0.065800 0.041813 0.221219
0.058570 0.036890 0.229107
0.070262 0.050604 0.220407
0.065943 0.055930 0.230306
0.046515 0.029404 0.266978
0.059532 0.035298 0.294994
0.063430 0.038776 0.306270
0.054866 0.055788 0.272906
0.058812 0.076685 0.266492
0.065599 0.094278 0.241410
0.065750 0.120855 0.247307
0.070909 0.116678 0.233003
0.056804 0.106938 0.280047
0.059788 0.102213 0.266888
0.055707 0.127383 0.279262
0.059242 0.079198 0.286330
0.055095 0.133593 0.278971
0.054199 0.099723 0.302792
0.049617 0.104246 0.315010
0.056622 0.091136 0.316160
0.052873 0.098987 0.317748
0.052192 0.121586 0.296911
0.046591 0.114762 0.328964
0.049514 0.122473 0.335611
0.071505 0.137489 0.339408
0.050032 0.140179 0.328204
0.070876 0.131833 0.346267
0.043377 0.167513 0.297422
0.086098 0.138094 0.351240
0.030222 0.188386 0.286683
0.027718 0.181773 0.304559
0.021544 0.187148 0.304393
0.005983 0.193965 0.297439
0.004938 0.191731 0.301307
0.106792 0.185389 0.387706
0.089138 0.182376 0.395822
0.104606 0.188180 0.391663
0.045623 0.162290 0.389446
0.067204 0.176087 0.385371
0.085784 0.165837 0.364567
0.083502 0.161430 0.361400
0.086336 0.141970 0.349069
0.057127 0.169101 0.369945
0.074370 0.162785 0.361567
0.065630 0.156152 0.347649
0.064295 0.159915 0.353044
0.056637 0.160124 0.350726
0.050341 0.155118 0.338618
0.042331 0.161549 0.354292
0.032615 0.162666 0.363301
0.039182 0.158576 0.334969
0.032417 0.161123 0.352039
0.027440 0.162270 0.352589
-0.007128 0.162406 0.366886
0.004035 0.169803 0.344115
0.014497 0.173924 0.332077
0.011285 0.184711 0.311125
-0.014313 0.175263 0.334210
-0.017912 0.181130 0.318600
-0.008261 0.204728 0.282957
-0.018318 0.189854 0.301378
-0.008681 0.205009 0.282277
-0.032198 0.202726 0.276237
-0.031947 0.198052 0.283007
-0.047225 0.194687 0.269557
-0.040699 0.194417 0.279083
-0.049820 0.191987 0.270294
-0.035075 0.173761 0.319910
-0.040143 0.180559 0.301919
-0.070846 0.169145 0.250506
-0.061367 0.169235 0.276260
-0.079272 0.185958 0.210492
-0.069761 0.181021 0.241161
-0.063991 0.185354 0.252235
-0.030191 0.169648 0.332332
-0.032542 0.165199 0.340580
-0.083227 0.159948 0.216615
-0.087886 0.162026 0.197576
-0.095206 0.133499 0.191168
-0.079765 0.169056 0.222887
-0.097669 0.131608 0.181738
-0.094020 0.141605 0.189427
-0.097751 0.146948 0.163471
-0.095869 0.147976 0.172237
-0.048043 0.159011 0.340719
-0.104639 0.122899 0.143995
-0.100552 0.125542 0.169548
-0.105931 0.106136 0.141005
-0.105664 0.097679 0.115410
-0.107066 0.094900 0.127540
-0.104850 0.109615 0.117728
-0.050472 0.158626 0.340424
-0.049264 0.160332 0.323892
-0.048453 0.163535 0.311828
-0.070143 0.153993 0.341556
-0.060553 0.153482 0.291760
-0.068467 0.164099 0.262061
-0.071377 0.158972 0.256861
-0.066053 0.164282 0.268602
-0.057676 0.146460 0.313183
-0.073322 0.134147 0.264005
-0.075432 0.140820 0.253900
-0.075124 0.151257 0.249900
-0.088516 0.121234 0.220300
-0.090951 0.135081 0.205170
-0.094492 0.129674 0.195989
-0.082206 0.151754 0.226174
-0.070309 0.130313 0.276447
-0.061931 0.120490 0.312264
-0.059595 0.133166 0.312332
-0.073326 0.114077 0.267262
-0.072909 0.105909 0.272119
-0.073175 0.126667 0.266406
-0.077904 0.106700 0.253832
-0.077511 0.119219 0.254615
-0.067899 0.115142 0.293656
-0.091854 0.107160 0.210127
-0.096240 0.113873 0.192480
-0.089154 0.111422 0.221227
-0.097388 0.095648 0.187308
-0.102830 0.077396 0.162487
-0.106486 0.080144 0.142996
-0.101068 0.096975 0.170867
-0.071735 0.091083 0.288017
-0.058906 0.120814 0.322224
-0.066722 0.109682 0.302851
-0.076509 0.084807 0.324018
-0.074314 0.078521 0.302851
-0.059542 0.117356 0.331615
-0.078154 0.077827 0.316987
-0.060474 0.122330 0.329060
-0.072116 0.127991 0.333112
-0.069420 0.122971 0.342696
-0.081994 0.145399 0.339746
-0.095821 0.134133 0.351077
-0.101423 0.139302 0.348595
-0.107815 0.150670 0.358433
-0.107731 0.162714 0.367122
-0.119308 0.174462 0.380422
-0.093557 0.164912 0.365245
-0.077148 0.163648 0.361519
-0.119627 0.181693 0.381669
-0.064882 0.166285 0.368894
-0.057051 0.165979 0.371758
-0.050640 0.156108 0.382227
-0.065788 0.167710 0.387176
-0.097914 0.180172 0.382889
-0.106512 0.179656 0.381902
-0.112349 0.186986 0.393425
-0.011336 0.141366 -0.375001
-0.018450 0.152951 -0.366670
-0.011318 0.177233 -0.380058
-0.010936 0.183407 -0.376480
-0.007266 0.195994 -0.370386
0.001160 0.162565 -0.363253
0.005704 0.157515 -0.362272
-0.003392 0.195978 -0.375450
-0.020709 0.209442 -0.348914
-0.030148 0.207471 -0.343703
-0.057782 0.204864 -0.353004
-0.052096 0.207451 -0.345153
-0.042683 0.206907 -0.340969
0.006146 -0.019483 0.415299
-0.002618 -0.027511 0.424809
-0.012062 -0.018528 0.418179
-0.011476 -0.001566 0.399554
-0.025991 -0.008899 0.401160
-0.005066 0.008283 0.386028
-0.024316 0.005039 0.401747
-0.023568 0.002789 0.414811
-0.021409 -0.004055 0.431445
-0.015862 -0.001985 0.428838
-0.016625 0.006796 0.420016
0.007644 0.002376 0.423482
0.009131 0.002131 0.420148
0.014716 -0.001124 0.418004
0.010602 0.002755 0.410241
0.005947 0.006270 0.406287
-0.055223 -0.162389 0.147228
-0.056383 -0.154651 0.147566
-0.059103 -0.150896 0.145852
