0.058378 0.003540 0.183527
0.049394 0.019643 0.191052
0.066289 -0.009016 0.189285
0.039967 0.024244 0.128773
0.026551 0.035261 0.150396
0.042818 0.025650 0.181612
0.039948 0.027288 0.170696
0.037092 0.029140 0.164216
0.018933 0.043325 0.176898
0.024914 0.038545 0.170901
0.041572 0.020969 0.085701
0.051666 0.003078 0.070225
0.047666 0.010194 0.070849
0.046604 0.012037 0.080769
0.024246 0.034868 0.114835
0.029652 0.030634 0.111781
0.030224 0.029993 0.099332
0.040564 0.022271 0.105069
0.032302 0.028452 0.102491
0.050956 0.005319 0.047666
0.044866 0.015324 0.060054
0.053560 0.001663 0.032851
0.058485 -0.012269 0.042689
0.059473 -0.025133 0.014399
0.059958 -0.028720 0.012699
0.039773 0.022667 0.037276
0.041079 0.020739 0.035896
0.041332 0.019539 0.016810
0.055118 -0.015163 -0.005337
0.054815 -0.013219 -0.005034
0.055270 -0.014882 -0.004066
0.042234 0.017700 0.008990
0.046842 0.011049 0.008033
0.047929 0.010061 0.015779
0.053015 -0.024562 -0.026380
0.052698 -0.011799 -0.016070
0.047943 -0.052743 -0.030493
0.055264 -0.037985 -0.012516
0.024436 0.032734 0.058360
0.034641 0.026474 0.036887
0.031783 0.028654 0.083330
0.022969 0.034366 0.078421
0.053104 -0.030216 -0.029570
0.047238 -0.053196 -0.035741
0.050515 -0.040357 -0.032293
0.049364 -0.045728 -0.052292
0.046759 -0.062274 -0.049145
0.045165 -0.062870 -0.037972
0.047985 -0.000107 -0.062949
0.049807 -0.006550 -0.033310
0.049728 -0.005334 -0.029697
0.052478 -0.023934 -0.060266
0.052722 -0.025211 -0.060348
0.038960 0.022264 0.002826
0.043434 0.014808 -0.007409
0.042774 0.015065 -0.028425
0.046853 0.007224 -0.038969
0.046487 0.005738 -0.056964
0.022327 0.034759 0.012665
0.026428 0.032527 -0.005537
0.029460 0.029882 0.036604
0.030142 0.029651 0.022214
0.037843 0.023956 -0.068324
0.043787 0.010919 -0.068416
0.031533 0.030034 -0.024278
0.021655 0.036236 -0.004395
0.030353 0.031416 -0.032672
0.035609 0.027583 -0.057446
0.016010 0.035886 0.040946
0.007213 0.037108 0.044135
0.017058 0.039523 -0.014389
0.003944 0.041117 0.007588
0.006997 0.039274 0.019864
0.011071 0.038238 0.020237
0.006676 0.036512 0.067195
0.008657 0.036259 0.076583
0.018122 0.035580 0.098453
0.020028 0.035152 0.091975
-0.000798 0.041025 0.017427
-0.005060 0.037525 0.043759
0.005399 0.037519 0.109743
0.009053 0.038378 0.116802
0.019181 0.037890 0.133651
0.009252 0.041825 0.147749
-0.007308 0.036374 0.063188
-0.011358 0.035812 0.077046
-0.007208 0.036432 0.056275
-0.009288 0.036590 0.047474
-0.002976 0.037320 0.052415
-0.008503 0.037795 0.113199
-0.020698 0.035712 0.109032
-0.020694 0.034190 0.065205
-0.012567 0.035909 0.089586
0.001641 0.047702 0.179107
0.011024 0.042326 0.158303
0.010032 0.047175 0.182771
0.020415 0.039357 0.157149
-0.017973 0.037817 0.124345
-0.002461 0.043889 0.144769
-0.009059 0.042308 0.152081
-0.010535 0.043499 0.167683
-0.024629 0.033911 0.096616
-0.037937 0.023841 0.064453
-0.026725 0.033916 0.131658
-0.025989 0.034746 0.136694
-0.038883 0.023384 0.078238
-0.040121 0.022471 0.081321
-0.005866 0.048093 0.184338
-0.034874 0.026466 0.030148
-0.023532 0.033335 0.057761
-0.021705 0.034737 0.040865
-0.020308 0.035923 0.019807
-0.040136 0.023579 0.122058
-0.034036 0.029553 0.143904
-0.035435 0.030228 0.161231
-0.023091 0.039844 0.171251
-0.041242 0.021451 0.102459
-0.051956 0.002536 0.073808
-0.057070 -0.006517 0.065605
-0.057416 -0.001531 0.119266
-0.046580 0.014668 0.118900
-0.048716 0.012787 0.129808
-0.052533 0.002406 0.087731
-0.062031 -0.009082 0.113973
-0.058557 -0.006982 0.084018
-0.051840 0.003670 0.089954
-0.054403 -0.001455 0.077425
-0.046588 0.012491 0.027652
-0.044501 0.016212 0.044601
-0.050426 0.006987 0.027148
-0.043857 0.017262 0.057443
-0.051823 0.004325 0.039252
-0.052925 0.001897 0.046477
-0.051180 0.004345 0.056338
-0.045381 0.013131 0.008074
-0.050882 0.004067 -0.008650
-0.048486 0.007510 -0.008312
-0.058522 -0.010445 0.051895
-0.058903 -0.016448 0.036320
-0.059545 -0.023542 0.023613
-0.053473 -0.001771 -0.000478
-0.051133 -0.000832 -0.014095
-0.038454 0.022656 -0.011615
-0.038091 0.023866 0.010923
-0.034486 0.027607 -0.015035
-0.036812 0.025565 0.012588
-0.052964 -0.012563 -0.015293
-0.053362 -0.010729 -0.011300
-0.048989 0.000947 -0.024999
-0.024298 0.035998 -0.026123
-0.022688 0.035161 -0.001687
-0.017277 0.037777 0.007761
-0.012887 0.040406 -0.012379
-0.044547 0.009534 -0.051400
-0.045834 0.006143 -0.062666
-0.047273 0.006837 -0.036471
-0.052500 -0.024119 -0.031658
-0.048389 -0.000171 -0.049308
-0.047946 0.004759 -0.038906
-0.029413 0.032230 -0.036070
-0.030279 0.031492 -0.033839
-0.037868 0.022982 -0.052532
-0.037477 0.023029 -0.038716
-0.036317 0.025988 -0.045768
-0.002078 0.043596 -0.028831
-0.014236 0.041101 -0.028924
0.002145 0.041786 0.004344
-0.023596 0.036947 -0.046013
-0.029096 0.032712 -0.063247
-0.014671 0.041100 -0.058867
-0.017073 0.040573 -0.044174
0.013071 0.041394 -0.055205
0.003177 0.043506 -0.037807
0.026865 0.034463 -0.048576
0.027523 0.033937 -0.053670
-0.005884 0.043883 -0.071886
0.003875 0.043378 -0.040510
0.009960 0.042284 -0.059277
-0.002733 0.043165 -0.105800
-0.004568 0.043992 -0.077801
0.014527 0.041125 -0.077972
0.016695 0.040527 -0.077530
-0.039863 0.023379 -0.092464
-0.032680 0.029493 -0.079746
-0.042128 0.019590 -0.095865
-0.040025 0.020723 -0.077262
-0.018976 0.038910 -0.104758
-0.014230 0.040220 -0.103137
-0.027689 0.033034 -0.086711
-0.034692 0.027149 -0.099615
0.018888 0.039937 -0.077874
0.007589 0.041620 -0.111655
0.037642 0.025207 -0.089677
0.040311 0.022593 -0.101413
0.040392 0.022319 -0.107179
0.027911 0.032964 -0.096496
0.037914 0.024081 -0.070632
0.042238 0.017860 -0.087748
0.009481 0.040807 -0.117595
-0.002424 0.041368 -0.131078
0.050256 0.002940 -0.102426
0.045900 0.009539 -0.085850
0.047949 0.001104 -0.069096
0.052936 -0.006679 -0.090327
0.050996 -0.014528 -0.067749
0.037533 0.025908 -0.121459
0.058650 -0.028518 -0.099628
0.056306 -0.029808 -0.082333
0.050068 0.006084 -0.110221
0.047923 0.013482 -0.114752
0.065506 -0.031859 -0.107805
0.064625 -0.015815 -0.119905
0.056365 -0.044808 -0.086677
0.054698 -0.043747 -0.077088
0.054474 -0.043052 -0.075621
0.065046 -0.035318 -0.105807
0.061752 -0.057083 -0.097302
0.051693 -0.055695 -0.070312
0.052468 -0.063193 -0.075834
0.049417 -0.072358 -0.080394
0.053259 -0.078159 -0.087854
0.044211 -0.118434 -0.107811
0.052193 -0.106198 -0.100583
0.077985 -0.078033 -0.099547
0.066257 -0.072455 -0.093516
0.073603 -0.066354 -0.101882
0.075921 -0.078753 -0.098578
0.052208 -0.115553 -0.105149
0.058466 -0.103420 -0.096047
0.067281 -0.097748 -0.096531
0.081687 -0.093272 -0.102810
0.068779 -0.111354 -0.100041
0.077024 -0.049323 -0.117474
0.078087 -0.059841 -0.110738
0.085382 -0.084156 -0.118029
0.085250 -0.093420 -0.113746
0.061409 -0.125741 -0.103071
0.065885 -0.148989 -0.105395
0.067866 -0.122542 -0.102212
0.065302 -0.123822 -0.100992
0.058184 -0.173665 -0.120772
0.059087 -0.182936 -0.124401
0.070228 -0.147553 -0.106888
0.070249 -0.156146 -0.109844
0.081890 -0.133079 -0.110440
0.088590 -0.114595 -0.122063
0.088205 -0.085118 -0.127363
0.089123 -0.101285 -0.122948
0.089823 -0.118265 -0.126945
0.085826 -0.136708 -0.121315
0.083245 -0.153992 -0.120931
0.085894 -0.152939 -0.125606
0.086782 -0.081456 -0.129560
0.088043 -0.087798 -0.130233
0.090778 -0.099191 -0.129815
0.090708 -0.122923 -0.137465
0.090222 -0.127912 -0.139438
0.075795 -0.043954 -0.119108
0.081001 -0.056659 -0.128715
0.073720 -0.035230 -0.124657
0.072746 -0.031059 -0.129860
0.078788 -0.056434 -0.148865
0.079534 -0.053852 -0.141757
0.079745 -0.053437 -0.140091
0.085719 -0.078833 -0.132571
0.084412 -0.082666 -0.141940
0.085743 -0.083687 -0.135428
0.067801 -0.017488 -0.140045
0.059296 -0.000513 -0.140650
0.074078 -0.052954 -0.167516
0.074915 -0.047904 -0.158544
0.077679 -0.056544 -0.155308
0.073654 -0.032505 -0.144734
0.065180 -0.012457 -0.146323
0.045744 0.019541 -0.149077
0.046455 0.018545 -0.151428
0.064929 -0.023107 -0.172063
0.065009 -0.024672 -0.175584
0.054782 0.003649 -0.165180
0.059134 -0.001993 -0.158389
0.040039 0.024415 -0.142095
0.034933 0.028325 -0.124992
0.020887 0.036633 -0.133956
0.042131 0.019270 -0.165794
0.051076 0.005979 -0.174409
0.037655 0.025212 -0.155209
0.032894 0.026437 -0.160762
0.005898 0.038608 -0.142727
0.022824 0.033442 -0.152674
-0.020376 0.036259 -0.137849
-0.023554 0.035805 -0.136517
0.002564 0.027006 -0.180851
-0.027248 0.033593 -0.132549
-0.038985 0.024998 -0.124298
-0.042742 0.020876 -0.115691
-0.016713 0.035129 -0.148542
-0.007084 0.029995 -0.171126
-0.031754 0.030328 -0.141865
-0.035985 0.026438 -0.153384
-0.047431 0.015456 -0.122851
-0.048271 0.015812 -0.146519
-0.059188 -0.000483 -0.139321
-0.059777 -0.002770 -0.125661
-0.037691 0.016602 -0.183879
-0.033348 0.025354 -0.163463
-0.046037 0.014815 -0.111242
-0.045385 0.014145 -0.104985
-0.049993 0.000807 -0.087553
-0.051129 -0.001533 -0.088467
-0.025313 0.019847 -0.186693
-0.019729 0.023081 -0.183241
-0.006258 0.026596 -0.180696
-0.049465 0.008732 -0.171971
-0.042630 0.012498 -0.181192
-0.052757 0.009172 -0.150707
-0.057937 -0.000816 -0.162550
-0.015190 0.018748 -0.193816
-0.031305 0.006570 -0.199135
-0.011756 0.018865 -0.194375
0.003799 0.026028 -0.183198
0.026295 0.027374 -0.168141
0.026493 0.029502 -0.162956
0.029135 0.015496 -0.191714
0.009301 0.015221 -0.199379
0.035695 0.009443 -0.193011
0.029383 0.009048 -0.199423
0.045037 -0.008973 -0.200843
0.027285 0.003255 -0.206292
0.055560 -0.018541 -0.188778
0.046106 -0.012450 -0.201302
0.003724 0.006555 -0.210384
0.048934 -0.028723 -0.202695
0.028819 -0.003455 -0.209784
0.044053 -0.021330 -0.206362
0.019227 -0.001392 -0.213713
0.051383 -0.043490 -0.202702
0.064143 -0.042530 -0.182628
0.062362 -0.050550 -0.187092
0.073848 -0.059828 -0.171583
0.068966 -0.071539 -0.181587
0.068521 -0.052233 -0.178039
0.039841 -0.036107 -0.209081
0.037801 -0.045486 -0.209604
0.043054 -0.059100 -0.207051
0.053719 -0.065677 -0.201830
0.022308 -0.042125 -0.219355
0.010635 -0.011401 -0.222999
0.012234 -0.048193 -0.220933
-0.011283 -0.006717 -0.220220
-0.017160 -0.006781 -0.217821
-0.020430 -0.007209 -0.216218
-0.024683 -0.027980 -0.219687
-0.029964 -0.010177 -0.212911
-0.033433 0.002965 -0.199616
-0.049546 -0.006401 -0.192566
-0.013705 -0.049162 -0.219760
-0.040711 -0.021994 -0.209175
-0.036010 -0.028140 -0.212286
-0.031192 -0.037925 -0.213853
-0.049598 -0.016795 -0.197416
-0.054767 -0.006701 -0.185802
-0.057908 -0.025505 -0.187606
-0.051387 -0.021279 -0.196235
-0.064521 -0.021150 -0.170335
-0.064299 -0.019242 -0.167113
-0.061372 -0.008117 -0.162493
-0.043150 -0.038437 -0.206983
-0.042617 -0.047716 -0.207258
-0.059139 -0.067925 -0.195777
-0.053983 -0.052594 -0.200582
-0.056951 -0.065119 -0.198595
-0.001748 -0.055427 -0.219961
-0.016597 -0.066596 -0.213084
-0.016761 -0.051394 -0.217353
-0.008966 -0.076222 -0.212038
-0.007327 -0.094908 -0.206323
-0.013356 -0.096057 -0.204722
-0.025896 -0.073023 -0.210586
-0.029298 -0.088105 -0.208654
-0.035826 -0.070524 -0.212146
-0.031287 -0.057363 -0.213202
-0.016566 -0.101600 -0.198050
-0.031873 -0.099796 -0.201379
-0.020522 -0.111508 -0.184991
-0.006255 -0.120746 -0.174857
-0.048283 -0.090955 -0.205440
-0.053727 -0.097178 -0.199687
-0.011547 -0.123686 -0.165720
-0.001762 -0.128471 -0.157509
-0.009460 -0.124827 -0.149076
-0.011999 -0.118139 -0.137510
-0.008124 -0.112673 -0.130033
-0.031889 -0.126425 -0.133901
-0.022140 -0.125584 -0.143420
-0.047320 -0.126991 -0.113265
-0.038408 -0.134345 -0.130772
-0.024798 -0.115158 -0.186040
-0.033804 -0.100179 -0.202202
-0.045795 -0.099742 -0.205969
-0.044431 -0.149577 -0.134634
-0.031621 -0.145648 -0.152957
-0.047455 -0.160364 -0.133316
-0.039169 -0.151770 -0.146371
-0.048952 -0.161466 -0.130794
-0.031748 -0.131109 -0.180400
-0.024111 -0.128565 -0.166251
-0.021257 -0.123126 -0.168588
-0.031231 -0.141696 -0.162076
-0.034103 -0.149082 -0.158248
-0.035631 -0.127745 -0.188010
-0.035963 -0.130190 -0.186704
-0.038441 -0.161456 -0.155024
-0.037273 -0.159645 -0.158527
-0.048533 -0.189916 -0.142754
-0.051998 -0.180213 -0.132270
-0.051600 -0.131083 -0.194747
-0.053338 -0.137991 -0.190323
-0.055674 -0.132977 -0.192012
-0.060875 -0.116098 -0.190381
-0.045586 -0.184117 -0.151536
-0.047304 -0.188651 -0.146464
-0.049677 -0.198470 -0.160012
-0.048912 -0.196482 -0.164049
-0.045696 -0.159293 -0.176346
-0.046060 -0.168977 -0.174282
-0.051147 -0.162720 -0.181360
-0.065069 -0.160431 -0.181286
-0.048569 -0.172764 -0.177684
-0.059357 -0.176250 -0.180490
-0.049658 -0.199010 -0.174455
-0.052871 -0.205028 -0.184232
-0.053144 -0.217298 -0.179973
-0.053323 -0.222612 -0.172618
-0.051905 -0.224284 -0.195334
-0.055786 -0.209221 -0.187512
-0.058891 -0.210189 -0.189512
-0.067529 -0.189939 -0.186982
-0.070037 -0.205949 -0.190962
-0.047256 -0.260995 -0.218074
-0.049297 -0.264196 -0.223692
-0.048378 -0.276509 -0.216982
-0.062597 -0.312442 -0.226719
-0.062461 -0.300358 -0.229590
-0.056684 -0.317822 -0.217122
-0.057059 -0.328751 -0.218026
-0.061851 -0.349160 -0.227035
-0.057028 -0.365862 -0.223977
-0.064544 -0.370583 -0.232120
-0.063800 -0.293925 -0.232120
-0.065475 -0.368025 -0.232433
-0.081016 -0.358518 -0.227779
-0.075629 -0.347351 -0.229081
-0.070321 -0.312447 -0.229972
-0.087832 -0.370927 -0.222300
-0.082560 -0.353789 -0.222899
-0.092269 -0.372680 -0.214362
-0.079051 -0.376152 -0.184142
-0.074942 -0.368766 -0.185471
-0.071844 -0.373533 -0.181729
-0.069804 -0.371631 -0.182401
-0.063073 -0.365069 -0.190426
-0.072461 -0.363063 -0.202510
-0.056927 -0.370066 -0.224934
-0.075401 -0.329036 -0.214931
-0.080943 -0.351852 -0.219123
-0.061247 -0.348546 -0.207867
-0.073641 -0.335129 -0.212649
-0.058381 -0.329628 -0.206591
-0.058486 -0.331473 -0.206471
-0.056928 -0.326694 -0.215022
-0.071729 -0.309135 -0.216568
-0.068351 -0.286632 -0.221605
-0.054981 -0.307193 -0.210426
-0.054862 -0.307343 -0.211525
-0.046473 -0.270323 -0.210303
-0.046827 -0.264912 -0.205283
-0.047913 -0.253539 -0.199321
-0.069745 -0.277153 -0.227518
-0.069471 -0.264766 -0.228836
-0.067304 -0.268536 -0.218264
-0.060562 -0.270409 -0.207845
-0.063757 -0.252496 -0.231278
-0.057503 -0.270345 -0.203533
-0.069388 -0.250012 -0.203067
-0.070608 -0.247704 -0.207554
-0.060226 -0.259872 -0.199917
-0.051524 -0.248113 -0.187171
-0.050329 -0.242200 -0.189389
-0.055164 -0.240243 -0.172273
-0.052486 -0.204166 -0.141506
-0.066891 -0.226895 -0.159006
-0.065862 -0.239161 -0.175835
-0.069597 -0.241692 -0.190233
-0.060921 -0.211588 -0.141105
-0.070528 -0.217098 -0.150554
-0.068366 -0.207288 -0.138235
-0.062065 -0.197333 -0.129484
-0.055102 -0.177195 -0.124420
-0.076891 -0.206846 -0.145534
-0.077243 -0.219478 -0.163802
-0.064419 -0.156676 -0.109523
-0.055396 -0.163972 -0.119293
-0.061888 -0.145888 -0.107548
-0.070667 -0.181261 -0.120293
-0.076409 -0.173178 -0.119594
-0.083864 -0.188929 -0.140995
-0.080522 -0.181253 -0.128835
-0.055015 -0.131448 -0.108399
-0.079361 -0.150740 -0.113685
-0.066877 -0.140729 -0.104044
-0.069649 -0.138133 -0.105246
-0.082207 -0.170215 -0.124791
-0.081562 -0.149592 -0.116182
-0.059199 -0.113784 -0.100600
-0.077563 -0.130563 -0.107817
-0.080987 -0.129348 -0.108867
-0.078153 -0.109529 -0.103230
-0.086882 -0.136141 -0.123250
-0.089183 -0.119766 -0.125930
-0.087727 -0.117150 -0.120720
-0.086865 -0.120860 -0.120036
-0.088561 -0.156295 -0.148401
-0.089401 -0.152594 -0.145033
-0.092101 -0.128126 -0.132773
-0.086357 -0.115994 -0.152550
-0.092090 -0.111352 -0.131949
-0.087515 -0.136396 -0.158066
-0.086803 -0.133978 -0.160763
-0.088041 -0.106468 -0.117175
-0.089178 -0.095547 -0.125771
-0.089796 -0.093589 -0.128757
-0.085839 -0.098212 -0.146063
-0.086789 -0.160526 -0.156937
-0.085658 -0.169192 -0.158961
-0.085321 -0.187188 -0.151796
-0.079223 -0.130533 -0.168519
-0.072221 -0.138998 -0.176472
-0.075956 -0.152392 -0.172587
-0.073693 -0.123255 -0.174373
-0.069366 -0.130034 -0.179889
-0.066752 -0.130654 -0.183359
-0.067868 -0.147397 -0.181257
-0.071480 -0.096230 -0.177320
-0.080210 -0.092532 -0.165541
-0.081667 -0.089084 -0.160550
-0.081741 -0.088038 -0.159512
-0.083733 -0.081913 -0.145096
-0.065614 -0.092685 -0.185958
-0.074249 -0.079655 -0.173043
-0.071686 -0.075978 -0.177333
-0.063702 -0.061635 -0.187440
-0.074463 -0.066600 -0.172115
-0.061434 -0.069430 -0.192604
-0.081646 -0.181969 -0.166622
-0.082716 -0.185013 -0.165740
-0.070685 -0.177523 -0.177960
-0.082650 -0.190058 -0.163549
-0.078695 -0.192706 -0.173523
-0.080301 -0.207055 -0.176131
-0.077717 -0.222972 -0.176809
-0.074249 -0.228788 -0.197630
-0.071368 -0.242096 -0.211885
-0.072288 -0.227462 -0.201730
-0.066296 -0.231589 -0.212477
-0.069346 -0.250459 -0.223868
-0.060344 -0.232398 -0.214081
-0.059882 -0.235996 -0.216587
-0.075945 -0.056500 -0.162897
-0.071300 -0.044605 -0.171100
-0.077229 -0.060452 -0.161324
-0.070534 -0.033375 -0.161686
-0.073477 -0.034656 -0.149829
-0.069491 -0.021913 -0.144009
-0.078578 -0.068486 -0.163273
-0.079066 -0.067170 -0.159041
-0.081681 -0.066637 -0.143538
-0.075047 -0.033712 -0.139107
-0.066827 -0.019010 -0.123444
-0.066887 -0.019165 -0.123416
-0.075613 -0.043629 -0.118533
-0.077863 -0.046768 -0.127585
-0.070649 -0.031939 -0.115437
-0.083381 -0.071945 -0.118605
-0.083751 -0.070127 -0.121880
-0.082564 -0.080267 -0.108167
-0.083278 -0.085937 -0.108781
-0.076959 -0.083145 -0.099728
-0.074478 -0.090739 -0.099252
-0.059777 -0.031840 -0.100295
-0.065542 -0.073225 -0.092609
-0.072578 -0.055815 -0.106164
-0.066292 -0.036301 -0.107127
-0.059484 -0.077599 -0.089901
-0.058314 -0.082458 -0.090223
-0.056279 -0.018896 -0.096000
-0.056689 -0.026189 -0.089481
-0.055832 -0.039454 -0.081986
-0.054820 -0.050769 -0.080027
-0.054423 -0.012895 -0.091524
-0.052104 -0.016650 -0.071945
-0.052255 -0.016919 -0.072543
-0.052238 -0.023047 -0.044469
-0.051742 -0.020078 -0.060049
-0.036509 -0.092420 -0.090232
-0.044922 -0.103223 -0.097711
-0.037242 -0.098787 -0.093820
-0.030830 -0.103405 -0.100381
-0.024593 -0.113168 -0.118861
-0.000252 -0.102375 -0.103173
-0.001998 -0.103595 -0.105735
-0.003643 -0.100404 -0.094984
-0.012135 -0.100969 -0.097309
-0.010742 -0.098593 -0.090785
-0.006664 -0.098240 -0.075813
-0.014911 -0.095567 -0.077338
-0.005562 -0.094092 -0.061805
-0.006173 -0.095453 -0.067977
-0.041963 -0.077980 -0.077924
-0.038239 -0.082101 -0.079371
-0.029370 -0.086915 -0.074681
-0.051152 -0.057609 -0.069382
-0.049796 -0.059667 -0.065881
-0.006199 -0.090748 -0.046843
-0.034531 -0.077583 -0.063342
-0.029629 -0.081963 -0.062808
-0.014585 -0.088320 -0.035764
-0.051316 -0.041580 -0.062716
-0.046037 -0.060309 -0.042231
-0.047878 -0.059239 -0.054642
-0.030391 -0.078340 -0.044508
-0.035608 -0.073953 -0.047052
-0.047304 -0.052841 -0.033750
-0.049063 -0.045951 -0.033185
-0.055383 -0.038930 -0.011050
-0.052889 -0.033421 -0.027014
-0.053314 -0.042753 -0.016408
-0.022219 -0.085186 -0.039677
-0.030127 -0.079362 -0.030278
-0.028835 -0.080162 -0.032715
-0.002193 -0.114240 0.017182
-0.000555 -0.111696 0.012082
0.000510 -0.102162 -0.004415
-0.054017 -0.049388 0.001540
-0.044010 -0.069868 -0.015611
-0.046722 -0.063102 -0.015649
-0.043325 -0.068429 -0.022736
-0.034559 -0.078750 -0.015616
-0.013540 -0.115215 0.026833
-0.015597 -0.107016 0.013065
-0.024066 -0.109880 0.025785
-0.009637 -0.114152 0.021460
-0.032542 -0.094935 0.012399
-0.030929 -0.096210 0.011889
-0.030227 -0.100130 0.017284
-0.020916 -0.121726 0.047793
-0.004043 -0.126639 0.041455
-0.023232 -0.120080 0.046384
-0.004871 -0.134781 0.061422
-0.049774 -0.060539 0.002007
-0.048422 -0.067276 0.008769
-0.061924 -0.041389 0.029555
-0.054792 -0.056419 0.021467
-0.060465 -0.041991 0.022625
-0.059771 -0.015882 0.061339
-0.061911 -0.038056 0.022901
-0.062856 -0.039305 0.040232
-0.060249 -0.028222 0.023086
-0.053115 -0.087850 0.031789
-0.047117 -0.073694 0.007307
-0.055901 -0.070684 0.035529
-0.050784 -0.068667 0.017876
-0.059749 -0.062808 0.045785
-0.042261 -0.092097 0.022164
-0.036623 -0.105074 0.034740
-0.041311 -0.086830 0.012540
-0.062197 -0.029954 0.066672
-0.063604 -0.038674 0.063785
-0.060413 -0.018855 0.070754
-0.063246 -0.036051 0.069075
-0.063654 -0.056331 0.061214
-0.057758 -0.088398 0.052439
-0.064453 -0.065220 0.086425
-0.058424 -0.082920 0.050067
-0.063888 -0.052390 0.056728
-0.065322 -0.037829 0.102810
-0.062018 -0.013294 0.090392
-0.066107 -0.047960 0.102529
-0.064920 -0.019944 0.112504
-0.059730 -0.014698 0.067954
-0.053975 -0.105982 0.076113
-0.035157 -0.112454 0.050036
-0.046785 -0.101154 0.044126
-0.052544 -0.108319 0.079697
-0.059722 -0.087288 0.082997
-0.064174 -0.071100 0.099589
-0.056564 -0.096350 0.061772
-0.060716 -0.083103 0.084481
-0.060462 -0.087506 0.097113
-0.058191 -0.087373 0.055893
-0.059149 -0.085763 0.066767
-0.006552 -0.148323 0.092958
-0.025323 -0.135244 0.076717
-0.018199 -0.143982 0.090158
-0.027058 -0.127027 0.061703
-0.041476 -0.128329 0.092931
-0.040150 -0.128816 0.090633
-0.033633 -0.113272 0.048777
-0.033827 -0.132529 0.082041
-0.034227 -0.129581 0.077963
-0.031939 -0.143590 0.135165
-0.014157 -0.148880 0.101114
-0.031296 -0.144326 0.104400
-0.033339 -0.142102 0.106477
-0.037314 -0.136556 0.114243
-0.039974 -0.132967 0.106149
-0.032685 -0.143062 0.100106
-0.011542 -0.154548 0.144704
-0.002241 -0.158965 0.141403
-0.008059 -0.152276 0.120894
-0.054588 -0.105646 0.128220
-0.065305 -0.066116 0.110778
-0.058632 -0.094610 0.108033
-0.053752 -0.109026 0.128541
-0.062959 -0.075391 0.112412
-0.053935 -0.108313 0.128383
-0.050792 -0.117766 0.108739
-0.050173 -0.118617 0.109911
-0.050334 -0.117132 0.119598
-0.046649 -0.121388 0.132995
-0.066253 -0.039172 0.111418
-0.065173 -0.024936 0.118219
-0.065932 -0.043805 0.125016
-0.065639 -0.051638 0.142139
-0.065952 -0.043672 0.124386
-0.062382 -0.075905 0.137924
-0.066443 -0.061684 0.115385
-0.053251 -0.106728 0.143980
-0.057177 -0.093294 0.134307
-0.064442 -0.068653 0.125127
-0.065817 -0.027061 0.142045
-0.064767 -0.017672 0.118798
-0.066065 -0.050851 0.151483
-0.065414 -0.015863 0.131751
-0.065700 -0.033703 0.140854
-0.060394 -0.005423 0.126188
-0.057279 0.000914 0.151370
-0.049778 0.012552 0.141789
-0.062425 -0.008568 0.128938
-0.066759 -0.066618 0.157949
-0.063445 -0.084670 0.165458
-0.066983 -0.020872 0.157938
-0.069517 -0.059921 0.171331
-0.066479 -0.036409 0.154882
-0.054766 0.006527 0.163071
-0.053155 0.008082 0.156127
-0.053377 0.010366 0.173163
-0.027450 0.037209 0.178161
-0.030498 0.035498 0.190392
-0.043100 0.025677 0.186542
-0.033572 0.032565 0.178798
-0.070249 -0.044299 0.179250
-0.069307 -0.027612 0.175367
-0.067526 -0.017280 0.162880
-0.069957 -0.051770 0.174986
-0.067833 -0.011874 0.187318
-0.051236 0.015873 0.186103
-0.066530 -0.013093 0.161420
-0.060552 -0.106015 0.162066
-0.058351 -0.110252 0.158323
-0.059848 -0.104462 0.160738
-0.059403 -0.124898 0.164816
-0.038413 -0.135714 0.146630
-0.069745 -0.033155 0.194603
-0.069250 -0.031298 0.199612
-0.069709 -0.040446 0.194025
-0.050426 0.017114 0.196133
-0.056716 0.003713 0.207162
-0.068740 -0.013864 0.192083
-0.030667 0.037602 0.197420
-0.046687 0.021739 0.201164
-0.041235 0.025503 0.213439
-0.026949 0.040519 0.196463
-0.038756 0.033026 0.216986
-0.034907 0.042741 0.218918
-0.047219 0.005551 0.226453
-0.037077 0.033238 0.235398
-0.034590 0.009168 0.241034
-0.041428 -0.000193 0.238167
-0.057193 -0.001206 0.216744
-0.058317 -0.011435 0.221070
-0.029144 0.008204 0.252295
-0.060676 -0.020785 0.223040
-0.053749 -0.017583 0.233172
-0.033610 -0.012791 0.251406
-0.014350 -0.011269 0.270316
-0.037010 -0.029038 0.255457
-0.026618 -0.020107 0.258977
-0.066690 -0.028015 0.216086
-0.063211 -0.033817 0.225995
-0.070455 -0.048090 0.213981
-0.070944 -0.058500 0.188219
-0.074714 -0.054097 0.205414
-0.069339 -0.030207 0.208225
-0.039785 -0.036853 0.255064
-0.080596 -0.110125 0.200508
-0.075690 -0.085710 0.190260
-0.074252 -0.095061 0.186891
-0.073516 -0.093770 0.185399
-0.077514 -0.108906 0.193993
-0.068146 -0.117101 0.176421
-0.073956 -0.069680 0.216933
-0.063100 -0.041922 0.229207
-0.070152 -0.068227 0.229026
-0.079440 -0.105849 0.205877
-0.075351 -0.076428 0.217961
-0.051833 -0.053234 0.247515
-0.063999 -0.062078 0.235495
-0.058183 -0.059749 0.241609
-0.031125 -0.048284 0.260037
-0.031144 -0.036851 0.261222
-0.051257 -0.069919 0.250344
-0.046796 -0.058792 0.253954
-0.052061 -0.071194 0.249624
-0.042312 -0.079927 0.253289
-0.017389 -0.072285 0.261637
-0.034526 -0.066757 0.257060
-0.077141 -0.105425 0.216878
-0.076356 -0.114634 0.223921
-0.073019 -0.089031 0.228393
-0.056729 -0.093058 0.246599
-0.008080 -0.056672 0.269869
-0.007892 -0.047749 0.271396
-0.001220 -0.032601 0.279843
-0.008673 -0.016309 0.275735
-0.000100 -0.061483 0.273809
-0.000082 -0.060079 0.274178
-0.005043 -0.008653 0.280249
-0.001680 -0.005053 0.285168
-0.005094 -0.080744 0.265301
-0.049702 -0.093112 0.248955
-0.014381 -0.078806 0.260667
-0.026768 -0.091130 0.254541
-0.000318 -0.082350 0.267383
-0.002484 -0.125254 0.235355
-0.010230 -0.116177 0.244349
-0.006723 -0.130758 0.227529
-0.003473 -0.134985 0.222106
-0.011505 0.029063 0.284707
-0.008940 0.026904 0.286666
-0.016516 0.019623 0.274087
-0.013082 0.019131 0.279381
-0.013349 0.002101 0.273129
-0.005705 0.044822 0.294212
-0.026664 0.022443 0.258714
-0.015621 0.039481 0.282149
-0.033617 0.030811 0.243216
-0.030549 0.048618 0.255792
-0.026430 0.050530 0.267032
-0.011677 0.059233 0.293939
-0.019352 0.065875 0.288088
-0.001907 0.067023 0.303817
-0.013458 0.072045 0.298585
-0.029721 0.058032 0.255359
-0.029770 0.061035 0.253806
-0.027571 0.076439 0.282145
-0.032967 0.083760 0.277698
-0.031051 0.071013 0.257553
-0.034745 0.088274 0.283312
-0.034449 0.045790 0.225106
-0.029250 0.062942 0.226625
-0.034468 0.090445 0.269426
-0.031339 0.087558 0.250253
-0.033454 0.095855 0.257014
-0.031577 0.104015 0.249632
-0.025017 0.071370 0.222982
-0.029027 0.068682 0.232664
-0.031421 0.070120 0.241976
-0.028134 0.124196 0.246535
-0.025406 0.090823 0.234880
-0.021199 0.117710 0.235702
-0.026159 0.157622 0.246591
-0.011322 0.145417 0.236524
-0.011064 0.119080 0.228966
-0.010043 0.164187 0.241094
0.001222 0.160691 0.236665
0.002831 0.141388 0.231691
0.020774 0.155239 0.244648
0.004895 0.142601 0.232865
0.023909 0.137393 0.244398
0.007997 0.131248 0.231166
0.007695 0.136655 0.232611
0.023236 0.119127 0.238562
0.024357 0.128051 0.242585
-0.001140 0.131681 0.228375
0.006304 0.112504 0.225959
-0.013830 0.103729 0.225911
0.007736 0.107399 0.225319
-0.016278 0.098539 0.225297
0.028946 0.097164 0.243727
0.021798 0.107306 0.234358
0.034536 0.104204 0.256158
0.035272 0.092343 0.267532
0.011978 0.085873 0.219753
0.023807 0.096575 0.234584
0.019902 0.096804 0.227694
-0.002185 0.070231 0.206739
0.005476 0.074562 0.210808
-0.023752 0.064916 0.212998
-0.013062 0.054738 0.197181
-0.009304 0.058794 0.199578
-0.001579 0.051782 0.188119
0.002313 0.055235 0.192091
0.018487 0.067874 0.212523
0.023663 0.057026 0.206672
0.028232 0.075344 0.236572
0.026818 0.086858 0.236263
0.027766 0.071919 0.232469
0.031528 0.079151 0.245981
0.032967 0.084982 0.277747
0.035178 0.088607 0.282958
0.028611 0.050216 0.205844
0.032726 0.033901 0.191563
0.021127 0.069708 0.287549
0.026591 0.074861 0.282547
0.030207 0.072618 0.274084
0.031221 0.075391 0.270820
0.004002 0.062026 0.299437
0.012553 0.051067 0.290665
0.020884 0.053097 0.278071
0.016785 0.055779 0.287628
0.006484 0.044622 0.293470
0.006444 0.048406 0.294109
0.030829 0.050356 0.254939
0.028740 0.057889 0.258979
0.032325 0.058312 0.231863
0.034998 0.045929 0.227121
0.031860 0.049161 0.219752
0.017054 0.037036 0.279044
0.025254 0.031743 0.263786
0.030486 0.024723 0.249848
0.027734 0.023121 0.256627
0.005022 0.032635 0.292560
0.007349 0.020443 0.286237
0.015050 0.004073 0.271111
0.015932 0.017053 0.274146
0.017056 0.013557 0.271163
0.007047 0.007031 0.282318
0.000851 0.024086 0.294295
0.040295 0.030063 0.222344
0.039292 0.025656 0.230560
0.040902 0.028180 0.203262
0.024811 0.013342 0.258901
0.027570 0.016670 0.255735
0.033792 0.017583 0.242407
0.045678 0.021628 0.207126
0.048127 0.017822 0.207365
0.044905 0.007479 0.228255
0.058447 0.001096 0.205399
0.057685 0.002523 0.204948
0.066664 -0.010689 0.194125
0.026528 -0.005545 0.254671
0.013192 -0.025945 0.269948
0.038561 0.002738 0.239134
0.051465 0.000119 0.225605
0.041531 -0.009599 0.244532
0.068034 -0.021045 0.208371
0.054689 -0.013879 0.228869
0.062901 -0.013447 0.214361
0.070195 -0.021516 0.191716
0.069403 -0.040502 0.196977
0.024335 -0.020889 0.260908
0.031516 -0.029504 0.259554
0.073848 -0.050823 0.205350
0.072643 -0.060186 0.192645
0.071790 -0.066073 0.184324
0.055484 -0.018696 0.230891
0.063328 -0.025078 0.221517
0.064572 -0.035015 0.223270
0.065125 -0.045176 0.225322
0.063479 -0.038156 0.226818
0.051536 -0.020696 0.239178
0.035669 -0.032785 0.257795
0.080697 -0.111991 0.200445
0.076831 -0.086403 0.193672
0.068919 -0.102933 0.177064
0.071647 -0.088627 0.181490
0.076157 -0.106278 0.191221
0.072579 -0.069713 0.221840
0.067191 -0.056036 0.228044
0.074113 -0.075957 0.222286
0.078328 -0.090747 0.207981
0.078200 -0.088066 0.208070
0.043947 -0.048839 0.254736
0.065235 -0.060042 0.233707
0.057100 -0.059354 0.242746
0.018914 -0.053266 0.263167
0.021630 -0.045958 0.263109
0.022510 -0.066133 0.260757
0.038968 -0.048109 0.257695
0.011251 -0.035982 0.270164
0.010439 -0.034458 0.271129
0.007891 -0.069578 0.266817
0.066029 -0.072138 0.235137
0.059956 -0.074863 0.241730
0.028847 -0.074863 0.257908
0.029961 -0.070606 0.258027
0.033546 -0.067225 0.257306
0.009985 -0.085595 0.260608
0.028971 -0.096862 0.252484
0.020252 -0.092475 0.255610
0.018512 -0.082954 0.258623
0.036115 -0.087267 0.253566
0.005637 -0.097974 0.259170
0.002066 -0.122567 0.239408
0.001229 -0.144224 0.211444
0.011155 -0.131482 0.227832
0.005056 -0.139807 0.217220
0.073920 -0.093586 0.227390
0.071694 -0.088247 0.229873
0.077373 -0.115188 0.219082
0.074212 -0.086755 0.224906
0.043564 -0.115127 0.243316
0.028159 -0.116343 0.246560
0.051006 -0.098232 0.247036
0.032127 -0.102451 0.250126
0.031154 -0.139499 0.231086
0.023339 -0.128591 0.238291
0.030493 -0.140561 0.229095
0.056828 -0.101858 0.244760
0.058910 -0.111719 0.240903
0.055258 -0.124366 0.239981
0.054870 -0.121056 0.240835
0.074251 -0.129559 0.216821
0.072446 -0.134207 0.219235
0.066216 -0.142240 0.220937
0.040905 -0.153814 0.226827
0.042336 -0.136103 0.237170
0.054941 -0.148915 0.228084
0.060621 -0.149055 0.222409
0.040787 -0.173154 0.210935
0.033868 -0.166184 0.207942
0.046765 -0.175514 0.215078
0.063708 -0.163628 0.209353
0.060432 -0.169097 0.210848
0.076007 -0.130192 0.203436
0.069058 -0.163450 0.199860
0.073279 -0.138746 0.192382
0.075576 -0.118866 0.191219
0.071726 -0.163453 0.184293
0.064044 -0.134777 0.175320
0.064330 -0.147606 0.178111
0.055141 -0.141115 0.170386
0.048950 -0.135303 0.162804
0.038158 -0.142633 0.157252
0.036666 -0.144462 0.159659
0.020323 -0.153658 0.170273
0.022918 -0.151953 0.168213
0.009778 -0.149249 0.192326
0.000566 -0.150880 0.185727
0.004661 -0.150861 0.185897
0.019816 -0.152363 0.183399
0.017547 -0.150999 0.190126
0.023620 -0.153135 0.195506
0.033538 -0.166770 0.186222
0.031973 -0.160637 0.188313
0.036624 -0.156406 0.173394
0.037268 -0.178751 0.184390
0.041799 -0.165484 0.170350
0.036134 -0.181174 0.189938
0.056848 -0.164568 0.164202
0.047150 -0.172184 0.164222
0.041083 -0.198356 0.173291
0.041340 -0.204973 0.172068
0.039208 -0.201456 0.180952
0.046855 -0.183937 0.164678
0.044033 -0.196900 0.167406
0.069019 -0.164988 0.176177
0.056326 -0.200284 0.159622
0.059487 -0.223833 0.164480
0.060777 -0.213299 0.162374
0.046295 -0.207244 0.165474
0.042522 -0.225164 0.167978
0.037848 -0.245434 0.182051
0.037711 -0.271024 0.179348
0.053069 -0.250979 0.162902
0.040880 -0.255854 0.170141
0.041908 -0.248143 0.167732
0.046793 -0.250440 0.163898
0.041997 -0.257207 0.166706
0.050044 -0.261649 0.162328
0.038587 -0.285149 0.171553
0.039694 -0.290445 0.166795
0.046113 -0.286187 0.163069
0.038253 -0.303977 0.167200
0.039761 -0.304422 0.165485
0.052286 -0.311312 0.158495
0.039285 -0.318693 0.169157
0.041811 -0.337184 0.175159
0.050313 -0.328432 0.166444
0.054693 -0.328359 0.166007
0.042766 -0.340752 0.173141
0.058839 -0.361964 0.173913
0.059432 -0.369959 0.176462
0.061930 -0.326064 0.169613
0.060904 -0.348253 0.172809
0.069838 -0.365575 0.180987
0.065434 -0.359973 0.176823
0.067535 -0.378075 0.181719
0.077970 -0.371939 0.185483
0.060070 -0.310012 0.166895
0.060537 -0.302471 0.167478
0.080253 -0.365925 0.189921
0.081017 -0.374681 0.218733
0.073592 -0.370699 0.225863
0.075596 -0.366656 0.215303
0.085772 -0.369279 0.205178
0.059113 -0.370233 0.226683
0.071735 -0.351168 0.188083
0.065992 -0.338958 0.183810
0.063893 -0.329370 0.183155
0.061144 -0.316545 0.182328
0.061813 -0.333617 0.187720
0.060760 -0.302581 0.181184
0.056330 -0.364795 0.215301
0.052153 -0.371508 0.223570
0.049220 -0.345065 0.196062
0.043151 -0.372516 0.215209
0.043194 -0.367101 0.187699
0.044387 -0.351770 0.189633
0.043729 -0.342971 0.187791
0.050758 -0.317846 0.190732
0.038392 -0.308344 0.181560
0.038319 -0.298720 0.182464
0.055950 -0.310382 0.190146
0.044159 -0.292653 0.189947
0.038797 -0.274227 0.184415
0.038527 -0.268526 0.184346
0.042380 -0.250429 0.190853
0.053712 -0.263324 0.196361
0.048919 -0.275177 0.194579
0.042428 -0.222000 0.193645
0.060794 -0.292697 0.183333
0.062625 -0.291659 0.173392
0.061074 -0.273598 0.187261
0.062688 -0.274432 0.175344
0.064173 -0.253328 0.170464
0.063610 -0.236644 0.182121
0.063618 -0.268769 0.171841
0.061294 -0.241438 0.166998
0.067056 -0.213784 0.171158
0.058818 -0.251587 0.196774
0.053884 -0.245888 0.198399
0.065854 -0.203925 0.186813
0.067066 -0.220184 0.172627
0.066560 -0.204027 0.183124
0.063401 -0.222386 0.189525
0.068985 -0.182819 0.183222
0.068399 -0.179274 0.189245
0.064885 -0.184118 0.197820
0.058571 -0.222368 0.201856
0.056714 -0.216156 0.202805
0.057245 -0.195609 0.206563
0.048075 -0.215769 0.202139
0.041810 -0.214321 0.194047
0.046939 -0.203976 0.203563
0.046609 -0.195560 0.205733
0.038502 -0.192572 0.195006
0.056800 -0.379678 0.192284
0.069652 -0.380870 0.187601
0.044778 -0.378630 0.197128
0.078461 -0.380981 0.187752
0.055846 -0.381985 0.205816
0.074602 -0.380812 0.202650
0.062364 -0.382521 0.203118
0.069279 -0.380623 0.208073
0.063820 -0.380142 0.218451
0.013298 0.110426 0.337199
-0.007691 0.121827 0.324690
0.010249 0.105816 0.340757
-0.012949 0.117581 0.330215
-0.011909 0.103201 0.344270
0.004429 0.101899 0.344253
-0.000410 0.099060 0.347369
-0.011433 0.099858 0.348821
0.003749 0.094681 0.358289
-0.012924 0.098760 0.359115
0.005779 0.093468 0.365828
0.003718 0.090561 0.372458
0.000069 0.089907 0.378724
-0.002675 0.089983 0.373303
0.005891 0.096635 0.403933
0.013916 0.095281 0.400416
0.012808 0.095542 0.378639
0.010101 0.083202 0.383070
0.004743 0.084847 0.365008
0.023313 0.094518 0.357121
0.025812 0.093198 0.345917
0.027445 0.095987 0.339099
0.012557 0.086337 0.340604
0.002916 0.087283 0.336711
0.004510 0.084336 0.324300
-0.012867 0.082515 0.394213
-0.018050 0.086948 0.394756
-0.017912 0.093673 0.385503
-0.012803 0.094793 0.384434
-0.016992 0.085677 0.387646
-0.002660 0.082689 0.384612
-0.015504 0.086707 0.373429
-0.010491 0.084936 0.366784
-0.021667 0.097744 0.360319
-0.016114 0.099846 0.357406
-0.028426 0.104683 0.340515
-0.025709 0.094487 0.347925
-0.016529 0.087568 0.348531
-0.010225 0.086078 0.333853
-0.007938 0.085834 0.325440
-0.056518 -0.377159 0.180073
-0.050019 -0.381015 0.206266
-0.060039 -0.381682 0.210978
-0.064526 -0.379558 0.221438
-0.080953 -0.377603 0.216014
0.007885 0.103026 0.336007
0.009267 0.101903 0.307916
0.005997 0.103583 0.347320
0.003710 0.092238 0.335607
0.005816 0.092792 0.376392
0.009953 0.093254 0.380720
0.002814 0.100154 0.398496
0.007640 0.100345 0.383481
0.009430 0.100116 0.381252
-0.007926 0.102566 0.320882
-0.008756 0.101974 0.306998
-0.012369 0.101325 0.320448
-0.012160 0.101199 0.342957
-0.012103 0.092946 0.327327
-0.010705 0.092385 0.338586
-0.013280 0.096726 0.355200
-0.002407 0.091295 0.387292
-0.010284 0.095636 0.393370
-0.000159 0.099669 0.389341
-0.001746 0.100879 0.377356
-0.008538 0.101668 0.374923
-0.000579 0.103514 0.362314
-0.075229 -0.376535 -0.179228
-0.072947 -0.372590 -0.182712
0.085253 -0.376792 0.214893
0.079913 -0.376383 -0.185431
0.083215 -0.375687 -0.185248
-0.073239 -0.375121 0.223928
0.055894 -0.360279 -0.220427
0.055971 -0.356346 -0.218209
0.057833 -0.342902 -0.211166
0.056735 -0.338109 -0.217465
0.055677 -0.309883 -0.208690
0.050847 -0.287887 -0.208577
0.058922 -0.371673 -0.182186
0.058911 -0.367575 -0.185728
0.093714 -0.375795 -0.195139
0.090137 -0.371296 -0.206490
0.091826 -0.379916 -0.206257
0.079857 -0.361763 -0.210251
0.088749 -0.368669 -0.221454
0.086050 -0.361400 -0.221110
0.068035 -0.326259 -0.208921
0.076225 -0.348629 -0.213679
0.058920 -0.313766 -0.206502
0.059053 -0.288955 -0.207342
0.070105 -0.311563 -0.213145
0.065943 -0.303991 -0.210787
0.078186 -0.340035 -0.221231
0.071888 -0.309204 -0.215607
0.082898 -0.361562 -0.227148
0.082542 -0.353986 -0.226304
0.081039 -0.350700 -0.226641
0.072869 -0.377122 -0.233135
0.066311 -0.366224 -0.232752
0.061300 -0.375394 -0.230140
0.058292 -0.369145 -0.226726
0.069710 -0.331597 -0.231482
0.069629 -0.324179 -0.230670
0.060277 -0.329337 -0.221973
0.057137 -0.305371 -0.220631
0.073187 -0.320337 -0.227277
0.069670 -0.280276 -0.227244
0.056867 -0.288880 -0.227515
0.063170 -0.292582 -0.231867
0.061719 -0.305912 -0.227831
0.069041 -0.312082 -0.231115
0.051882 -0.273661 -0.224671
0.055199 -0.272965 -0.229498
0.064616 -0.278413 -0.213475
0.053301 -0.263364 -0.228677
0.048227 -0.249524 -0.213733
0.050440 -0.251943 -0.222127
0.057010 -0.242861 -0.220063
0.062875 -0.238359 -0.221256
0.050146 -0.236979 -0.197406
0.051651 -0.222698 -0.189283
0.061951 -0.221876 -0.203549
0.055198 -0.219456 -0.195824
0.069760 -0.246457 -0.220240
0.050576 -0.204052 -0.164748
0.051830 -0.207363 -0.178984
0.051526 -0.204163 -0.152737
0.049406 -0.195870 -0.155954
0.062367 -0.206334 -0.190148
0.048556 -0.191102 -0.173041
0.043383 -0.178273 -0.164158
0.040645 -0.171064 -0.157487
0.050389 -0.179644 -0.135786
0.043849 -0.175503 -0.149581
0.048819 -0.176945 -0.138642
0.049858 -0.172045 -0.180055
0.040505 -0.167280 -0.163008
0.044756 -0.167474 -0.144047
0.046393 -0.169687 -0.141928
0.042327 -0.152329 -0.140435
0.045414 -0.163071 -0.138281
0.053797 -0.157167 -0.119820
0.045482 -0.159484 -0.175830
0.038767 -0.163944 -0.160470
0.036365 -0.145663 -0.144509
0.025024 -0.136923 -0.154586
0.036815 -0.142993 -0.140593
0.037058 -0.147717 -0.166386
0.036050 -0.133699 -0.133925
0.037255 -0.131309 -0.130749
0.045870 -0.129275 -0.116762
0.029922 -0.120449 -0.124645
0.031757 -0.120352 -0.122362
0.017029 -0.121720 -0.140307
0.018347 -0.129377 -0.153446
0.006048 -0.121255 -0.144696
0.017162 -0.119051 -0.173490
0.017042 -0.120849 -0.170571
0.035791 -0.137583 -0.179166
0.023549 -0.131994 -0.159048
0.022577 -0.118261 -0.180032
0.003865 -0.122899 -0.170751
0.001258 -0.125024 -0.166962
0.020204 -0.112755 -0.183640
0.000430 -0.117577 -0.187983
0.018497 -0.089834 -0.205971
0.019031 -0.094453 -0.204392
0.017237 -0.056519 -0.215772
0.014990 -0.076715 -0.210615
0.027400 -0.073460 -0.211100
0.026321 -0.073173 -0.210720
0.024325 -0.101766 -0.196763
0.041012 -0.070597 -0.209097
0.040916 -0.074351 -0.209615
0.034847 -0.100502 -0.202957
0.033694 -0.108256 -0.197735
0.043441 -0.136749 -0.189459
0.042558 -0.142222 -0.184993
0.062009 -0.108894 -0.190568
0.052341 -0.087878 -0.202407
0.057896 -0.110091 -0.193710
0.048562 -0.105411 -0.202401
0.064318 -0.086513 -0.188393
0.069882 -0.085117 -0.179651
0.059161 -0.081502 -0.196879
0.080438 -0.095370 -0.165372
0.076834 -0.097196 -0.170244
0.080791 -0.103061 -0.165229
0.051846 -0.137570 -0.190991
0.063072 -0.132238 -0.186792
0.053997 -0.126154 -0.194071
0.068246 -0.124615 -0.181605
0.079536 -0.113951 -0.166940
0.068666 -0.110736 -0.181604
0.050965 -0.153483 -0.183064
0.084426 -0.141421 -0.164543
0.073892 -0.132620 -0.174088
0.088016 -0.138439 -0.156472
0.088079 -0.130776 -0.150457
0.078717 -0.159302 -0.169149
0.083248 -0.161368 -0.164328
0.073826 -0.166520 -0.172920
0.089705 -0.150944 -0.143993
0.088840 -0.151676 -0.149218
0.087789 -0.157128 -0.152787
0.088587 -0.160772 -0.133872
0.069186 -0.170967 -0.177689
0.079964 -0.183245 -0.129139
0.087802 -0.174105 -0.143180
0.084651 -0.191202 -0.153184
0.067194 -0.203046 -0.132471
0.065065 -0.184525 -0.121108
0.063235 -0.204605 -0.132751
0.072458 -0.204977 -0.138639
0.057340 -0.215646 -0.147683
0.074979 -0.213017 -0.150901
0.072982 -0.215427 -0.150165
0.055893 -0.245710 -0.176012
0.053336 -0.226147 -0.169372
0.075917 -0.220039 -0.162245
0.082670 -0.190862 -0.163102
0.064299 -0.239889 -0.175044
0.068955 -0.229733 -0.164953
0.053073 -0.260993 -0.194693
0.068064 -0.251909 -0.203208
0.072447 -0.235330 -0.184192
0.070119 -0.249347 -0.208256
0.076544 -0.225291 -0.183773
0.076044 -0.222431 -0.192905
0.080198 -0.211254 -0.170237
0.074741 -0.210794 -0.187296
0.078782 -0.199189 -0.176404
0.069312 -0.194106 -0.186720
0.069264 -0.179112 -0.180432
0.066465 -0.192356 -0.187413
-0.090312 -0.378577 -0.192571
0.068364 -0.383163 -0.222082
0.070613 -0.381310 -0.227939
0.057937 -0.380884 -0.209722
0.066473 -0.382492 -0.198140
0.091422 -0.382980 -0.207306
0.060622 -0.376978 -0.182847
0.078936 -0.384405 -0.199682
-0.005558 -0.154450 0.171853
-0.007305 -0.151523 0.183360
-0.005404 -0.147563 0.198833
-0.020871 -0.151213 0.194167
-0.014567 -0.149443 0.197109
-0.021589 -0.150493 0.153657
-0.012543 -0.156573 0.161776
-0.031330 -0.146871 0.160558
-0.045860 -0.135645 0.155903
-0.030324 -0.157670 0.180490
-0.031426 -0.163397 0.194860
-0.033269 -0.164368 0.184962
-0.053628 -0.136608 0.168796
-0.036558 -0.167586 0.175146
-0.036789 -0.196226 0.190080
-0.037074 -0.163599 0.173875
-0.041057 -0.145183 0.164672
-0.038141 -0.219096 0.183510
-0.048677 -0.178535 0.161325
-0.041677 -0.205837 0.170711
-0.039362 -0.248562 0.176684
-0.052252 -0.197162 0.160999
-0.044384 -0.232241 0.165930
-0.048655 -0.214056 0.163599
-0.041944 -0.250021 0.167056
-0.058305 -0.187564 0.158502
-0.040618 -0.277513 0.167000
-0.046305 -0.252488 0.164144
-0.042896 -0.294352 0.163893
-0.043266 -0.305836 0.161853
-0.051998 -0.247105 0.162552
-0.055069 -0.224861 0.161680
-0.055760 -0.252452 0.163298
-0.058188 -0.221129 0.161471
-0.062094 -0.208563 0.163249
-0.064932 -0.202411 0.167195
-0.057987 -0.247182 0.164371
-0.065229 -0.206322 0.169362
-0.058158 -0.178498 0.158540
-0.066090 -0.174852 0.166083
-0.050812 -0.167830 0.162029
-0.055241 -0.156149 0.167491
-0.070730 -0.169748 0.178767
-0.069073 -0.190643 0.176630
-0.066597 -0.199009 0.185340
-0.070384 -0.183230 0.175317
-0.064844 -0.143651 0.180666
-0.063494 -0.137996 0.176281
-0.070432 -0.128125 0.183245
-0.069112 -0.129188 0.180803
-0.071497 -0.162414 0.186805
-0.069223 -0.174490 0.188609
-0.077793 -0.123554 0.203660
-0.069696 -0.155590 0.204422
-0.075903 -0.123639 0.216900
-0.073329 -0.134630 0.213228
-0.062994 -0.130619 0.230920
-0.066441 -0.109254 0.234970
-0.070004 -0.110923 0.231572
-0.066451 -0.155420 0.212321
-0.055495 -0.141584 0.231891
-0.065575 -0.144980 0.219951
-0.043385 -0.122551 0.241360
-0.048465 -0.119972 0.241597
-0.051099 -0.135046 0.236073
-0.019191 -0.116469 0.248623
-0.027460 -0.119125 0.245807
-0.021369 -0.108674 0.250638
-0.031836 -0.129686 0.241345
-0.023222 -0.147001 0.214058
-0.025997 -0.142159 0.222904
-0.032414 -0.140302 0.231581
-0.035863 -0.149854 0.225197
-0.038009 -0.140807 0.235554
-0.033987 -0.158377 0.214055
-0.055480 -0.167995 0.218043
-0.039738 -0.172018 0.210570
-0.050283 -0.174721 0.215121
-0.037367 -0.170234 0.209051
-0.058348 -0.185771 0.208847
-0.047472 -0.199833 0.204669
-0.040571 -0.199636 0.194892
-0.060625 -0.212641 0.199395
-0.057691 -0.224133 0.201609
-0.044715 -0.217094 0.197889
-0.049233 -0.229133 0.200093
-0.044637 -0.230133 0.195495
-0.043736 -0.233226 0.193674
-0.041230 -0.246786 0.189357
-0.060886 -0.221954 0.196630
-0.064173 -0.227282 0.183694
-0.063795 -0.233998 0.182294
-0.057770 -0.239611 0.199478
-0.060190 -0.237705 0.194394
-0.045344 -0.277322 0.193213
-0.052312 -0.268945 0.195592
-0.041875 -0.287901 0.187967
-0.059240 -0.278479 0.192254
-0.063206 -0.250868 0.179584
-0.061887 -0.280110 0.181513
-0.062580 -0.264508 0.169728
-0.053079 -0.293270 0.192557
-0.060344 -0.298909 0.182904
-0.060343 -0.288075 0.168285
-0.061770 -0.300398 0.177272
-0.057432 -0.303474 0.163940
-0.038727 -0.296068 0.183377
-0.044093 -0.337893 0.188156
-0.055735 -0.318861 0.190834
-0.047027 -0.346365 0.193979
-0.054623 -0.340578 0.193429
-0.063580 -0.335528 0.186263
-0.061684 -0.314373 0.168823
-0.060076 -0.320002 0.167246
-0.071647 -0.352418 0.191971
-0.054343 -0.311148 0.160586
-0.074277 -0.358984 0.195277
-0.062464 -0.345223 0.194900
-0.042259 -0.329467 0.169454
-0.040858 -0.328661 0.173599
-0.039422 -0.324046 0.181129
-0.051705 -0.332960 0.167876
-0.065337 -0.338464 0.174247
-0.042890 -0.343158 0.174309
-0.053567 -0.342664 0.170505
-0.043177 -0.358932 0.183139
-0.047488 -0.371396 0.178358
-0.057038 -0.344731 0.170417
-0.057697 -0.372875 0.177526
-0.067933 -0.358969 0.178272
-0.071884 -0.351111 0.183312
-0.070644 -0.368172 0.182681
-0.068656 -0.345259 0.185657
-0.079271 -0.367135 0.187612
-0.085058 -0.374999 0.214018
-0.075220 -0.369983 0.224535
-0.074526 -0.363703 0.207867
-0.073885 -0.374398 0.226092
-0.064538 -0.366254 0.218310
-0.066372 -0.369954 0.226259
-0.055520 -0.364519 0.214794
-0.054510 -0.379062 0.226108
-0.042736 -0.375806 0.204031
-0.045801 -0.359750 0.196596
-0.043509 -0.369755 0.191187
0.001823 0.126577 0.403041
0.015761 0.122753 0.384186
0.002400 0.129682 0.394678
0.009088 0.129569 0.378758
0.013192 0.123513 0.369877
0.021164 0.113255 0.362646
0.002524 0.130289 0.364221
0.010742 0.125534 0.328480
-0.004814 0.125340 0.324525
-0.000367 0.130913 0.346036
-0.014988 0.121051 0.333391
-0.011762 0.123256 0.359042
-0.021036 0.113294 0.363302
-0.018464 0.117417 0.376689
-0.011095 0.129687 0.385195
-0.019836 0.120580 0.395337
0.040472 0.172404 0.296716
0.050848 0.146492 0.291027
0.048065 0.176541 0.288533
0.039291 0.183052 0.274035
0.039147 0.180395 0.266992
0.036358 0.176898 0.254160
0.054819 0.161978 0.280000
0.048580 0.166662 0.259895
0.056943 0.139380 0.297223
0.064025 0.143982 0.274133
0.055409 0.158404 0.288530
0.063762 0.136878 0.282479
0.056560 0.157870 0.258319
0.059928 0.152770 0.261179
0.058216 0.137850 0.237449
0.064194 0.133751 0.234357
0.060780 0.146128 0.236738
0.067207 0.136543 0.236090
0.067368 0.136121 0.260860
0.066880 0.131655 0.233071
0.068191 0.134783 0.252666
0.070180 0.129064 0.243295
0.075464 0.108465 0.240626
0.063606 0.081791 0.270193
0.072078 0.109440 0.271640
0.072669 0.117289 0.257768
0.070703 0.118385 0.271662
0.063195 0.128592 0.289660
0.064422 0.122520 0.290224
0.071557 0.099593 0.270330
0.070777 0.097859 0.276415
0.068975 0.090960 0.288635
0.069164 0.082702 0.281882
0.065193 0.112513 0.292848
0.061706 0.109149 0.301168
0.066139 0.096686 0.294789
