0.071648 -0.130069 0.151899
0.072717 -0.120925 0.167295
0.071838 -0.101191 0.182729
0.063736 -0.139848 0.138234
0.053272 -0.158671 0.136902
0.076297 -0.116098 0.153062
0.075406 -0.114480 0.135263
0.061695 -0.115346 0.128501
0.079091 -0.106103 0.162923
0.081692 -0.099982 0.137387
0.078890 -0.102041 0.166077
0.080157 -0.090123 0.163389
0.080305 -0.083375 0.166204
0.076879 -0.075450 0.183718
0.065879 -0.058451 0.216337
0.081310 -0.061762 0.155890
0.080681 -0.074156 0.165160
0.080910 -0.061276 0.178699
0.080800 -0.074221 0.169970
0.083771 -0.047907 0.169894
0.075442 -0.080441 0.132560
0.081837 -0.062210 0.141624
0.069088 -0.074205 0.127379
0.055928 -0.114314 0.125704
0.084088 -0.042140 0.170786
0.083059 -0.037914 0.166112
0.044927 -0.105415 0.116493
0.082789 -0.011876 0.175383
0.082406 -0.012902 0.180375
0.081404 -0.032494 0.186680
0.048100 -0.096736 0.109821
0.057150 -0.083595 0.109439
0.041733 -0.101326 0.101707
0.077101 -0.020602 0.201440
0.070047 -0.041091 0.219128
0.068020 -0.035065 0.222378
0.058340 -0.049052 0.231048
0.076341 0.002834 0.192468
0.079978 -0.001799 0.183170
0.056293 -0.036294 0.234313
0.046891 -0.048098 0.236781
0.059840 -0.019332 0.227887
0.053817 -0.028189 0.234183
0.062172 -0.005898 0.219576
0.072985 -0.006573 0.208181
0.033205 -0.017029 0.250783
0.044650 -0.018177 0.239612
0.030569 -0.019362 0.251614
0.057911 -0.000134 0.221873
0.041974 0.010278 0.240661
0.045583 0.015579 0.233594
0.023093 0.007184 0.267785
0.036954 0.004698 0.247616
0.032272 0.005590 0.256713
0.018807 0.004254 0.267894
0.009313 0.007161 0.275357
0.010931 0.023500 0.284882
0.011038 0.022714 0.284210
0.003106 0.040150 0.310033
0.028829 0.040728 0.278384
0.032877 0.055696 0.278137
0.011022 0.050742 0.309379
0.024266 0.050207 0.289761
0.008667 0.064130 0.337682
0.013274 0.069999 0.336397
0.011861 0.064128 0.324679
0.017362 0.075307 0.332823
0.026474 0.092133 0.330511
0.017625 0.065249 0.318894
0.026427 0.085953 0.321024
0.027081 0.061993 0.295068
0.031667 0.074814 0.285071
0.033300 0.067010 0.273702
0.029232 0.102184 0.310327
0.029309 0.081141 0.301184
0.027223 0.121935 0.312297
0.024913 0.135884 0.324492
0.018736 0.154128 0.321498
0.029132 0.114792 0.311905
0.023933 0.127533 0.294138
0.029745 0.100760 0.285260
0.016534 0.153908 0.310060
0.019842 0.138085 0.291202
-0.000260 0.170284 0.320602
0.015110 0.148069 0.289559
-0.004881 0.165274 0.303406
-0.001046 0.159843 0.288115
-0.011770 0.160501 0.308081
-0.000809 0.152373 0.270040
0.017359 0.137734 0.277803
0.031260 0.094899 0.266547
0.011593 0.142366 0.259593
0.019286 0.129542 0.258443
0.022165 0.119947 0.246640
0.033369 0.085907 0.267491
0.035288 0.064385 0.261472
0.040042 0.026615 0.245574
0.021627 0.120216 0.243133
0.029051 0.107391 0.255283
0.042635 0.045883 0.237603
0.039772 0.056310 0.245041
0.045629 0.036458 0.230803
0.034026 0.096509 0.239218
0.042946 0.052706 0.235666
0.045978 0.052926 0.217343
0.044623 0.066616 0.207658
0.052801 0.044117 0.206020
0.056859 0.050710 0.194255
0.041288 0.080973 0.214356
0.031715 0.099745 0.223788
0.039241 0.085770 0.214582
0.021379 0.117284 0.223313
0.042747 0.079118 0.193091
0.031773 0.094946 0.193189
0.022217 0.114470 0.216942
0.018308 0.107406 0.189216
0.009248 0.125960 0.216276
0.023318 0.110089 0.209257
0.001135 0.137943 0.235619
0.005409 0.130658 0.220983
-0.018191 0.136980 0.280398
-0.014516 0.139673 0.258727
-0.019235 0.132819 0.273448
-0.018457 0.126239 0.240853
-0.016811 0.146707 0.294996
-0.018397 0.147454 0.305703
-0.023863 0.123554 0.284083
-0.024608 0.121413 0.272696
-0.027956 0.121506 0.315497
-0.025460 0.123537 0.302296
-0.027430 0.127529 0.323519
-0.028751 0.105960 0.320614
-0.028937 0.106320 0.313254
-0.027098 0.106460 0.337913
-0.025513 0.092922 0.335055
-0.028950 0.085071 0.307702
-0.000146 0.037030 0.307383
-0.000554 0.012290 0.284566
-0.015621 0.043747 0.297893
-0.010677 0.013325 0.277969
-0.008610 0.005725 0.275263
-0.012749 0.016031 0.278052
-0.018246 0.000667 0.266097
-0.021172 0.004094 0.266804
-0.027586 -0.020096 0.252534
-0.017552 -0.025953 0.253165
-0.005336 -0.048027 0.249581
-0.011811 -0.070985 0.238761
-0.003288 -0.104139 0.220272
-0.022474 -0.077242 0.233203
-0.032560 -0.037547 0.244962
-0.029662 -0.028477 0.249448
-0.013550 -0.110128 0.213860
-0.028658 -0.098174 0.222135
-0.011732 -0.116702 0.206267
-0.002216 -0.126275 0.184947
-0.004583 -0.126224 0.187191
-0.015051 -0.118307 0.206134
-0.009848 -0.130090 0.170289
-0.028444 -0.123221 0.204446
-0.025184 -0.140346 0.185639
-0.027714 -0.166340 0.171939
-0.035320 -0.124434 0.202878
-0.033136 -0.135390 0.189588
-0.034006 -0.194934 0.176401
-0.031220 -0.212778 0.164671
-0.036579 -0.178450 0.181283
-0.032653 -0.234890 0.163730
-0.043666 -0.183262 0.181560
-0.040587 -0.144503 0.188139
-0.035073 -0.234402 0.176059
-0.049490 -0.195847 0.179821
-0.052499 -0.211740 0.175891
-0.057217 -0.193874 0.175512
-0.041061 -0.239175 0.176179
-0.060122 -0.211573 0.171532
-0.055154 -0.249488 0.172330
-0.040776 -0.268286 0.167071
-0.045594 -0.280729 0.168316
-0.042375 -0.303376 0.167369
-0.050112 -0.294282 0.169498
-0.056227 -0.262909 0.167217
-0.042614 -0.312217 0.168554
-0.040955 -0.324687 0.166171
-0.047998 -0.356249 0.178550
-0.037014 -0.384233 0.181812
-0.043407 -0.374499 0.187752
-0.051453 -0.385122 0.197532
-0.046891 -0.366622 0.182908
-0.059438 -0.382707 0.150831
-0.051721 -0.385259 0.149466
-0.054949 -0.372033 0.149511
-0.061988 -0.334868 0.164118
-0.058979 -0.308664 0.166644
-0.054452 -0.285060 0.169404
-0.057715 -0.282916 0.166521
-0.060356 -0.288264 0.161285
-0.059795 -0.268234 0.159955
-0.059757 -0.259055 0.163828
-0.061888 -0.219455 0.167163
-0.057704 -0.345435 0.148864
-0.060598 -0.357648 0.152587
-0.043664 -0.378437 0.151796
-0.049844 -0.289636 0.144132
-0.048246 -0.257881 0.144851
-0.038577 -0.232324 0.147942
-0.058378 -0.220107 0.144131
-0.033517 -0.228508 0.158683
-0.034436 -0.205547 0.152118
-0.035752 -0.211084 0.150615
-0.045962 -0.211836 0.142990
-0.032841 -0.173541 0.151895
-0.035116 -0.184318 0.149581
-0.029646 -0.179822 0.160540
-0.063776 -0.210129 0.155423
-0.064881 -0.189262 0.161257
-0.064886 -0.201917 0.157171
-0.063940 -0.169187 0.165626
-0.048762 -0.203767 0.143870
-0.063264 -0.166760 0.140827
-0.055672 -0.162177 0.138070
-0.043450 -0.194477 0.143283
-0.067931 -0.150805 0.149612
-0.061385 -0.153064 0.139033
-0.064864 -0.159130 0.165208
-0.030759 -0.149957 0.145001
-0.026735 -0.164496 0.163819
-0.020746 -0.144610 0.167764
-0.057390 -0.129031 0.134647
-0.033099 -0.141664 0.139608
-0.047174 -0.146393 0.134317
-0.011361 -0.131886 0.168371
-0.006559 -0.129610 0.168537
-0.019573 -0.123455 0.136419
-0.035150 -0.126305 0.133108
-0.009140 -0.115666 0.120725
-0.021361 -0.113118 0.092465
-0.017742 -0.113020 0.117280
-0.006251 -0.117951 0.088894
-0.002585 -0.122609 0.066056
-0.010923 -0.118434 0.075701
-0.044051 -0.109595 0.119317
-0.026596 -0.111927 0.087687
-0.023560 -0.117404 0.062314
-0.009022 -0.122831 0.054264
-0.020650 -0.120020 0.041927
-0.040422 -0.103938 0.105776
-0.033357 -0.112135 0.063763
-0.053194 -0.115433 0.125327
-0.054230 -0.127800 0.132964
-0.016400 -0.120974 0.022542
-0.018886 -0.120521 0.023875
-0.003937 -0.120757 -0.009834
-0.006973 -0.121719 0.005529
-0.073787 -0.122335 0.138195
-0.077983 -0.116156 0.141165
-0.053727 -0.088978 0.116627
-0.055604 -0.085734 0.106843
-0.079937 -0.097772 0.135949
-0.075805 -0.090349 0.132662
-0.080126 -0.110846 0.141744
-0.082528 -0.087313 0.143422
-0.063165 -0.075273 0.089370
-0.039153 -0.107522 0.064580
-0.056025 -0.093591 0.058702
-0.057280 -0.089440 0.065788
-0.042005 -0.109383 0.033033
-0.035984 -0.113620 0.047405
-0.064086 -0.063129 0.113379
-0.063012 -0.071638 0.107354
-0.068307 -0.046234 0.122238
-0.053937 -0.099751 0.043427
-0.063325 -0.076683 0.078149
-0.064271 -0.080530 0.050151
-0.054934 -0.098833 0.028460
-0.055706 -0.096676 0.046113
-0.066394 -0.052277 0.107644
-0.064685 -0.069586 0.088545
-0.067715 -0.058797 0.077620
-0.041136 -0.110145 0.014013
-0.048878 -0.103684 0.011877
-0.016093 -0.118879 -0.007303
-0.023233 -0.117142 -0.010292
-0.015430 -0.112375 -0.039999
-0.001567 -0.115373 -0.039139
-0.067654 -0.075378 0.031786
-0.060506 -0.089236 0.015859
-0.019916 -0.105712 -0.059729
-0.051245 -0.096170 -0.022644
-0.061557 -0.084587 0.002371
-0.047705 -0.090043 -0.066917
-0.040216 -0.102136 -0.038916
-0.042111 -0.101191 -0.035786
-0.016449 -0.095946 -0.093240
-0.010110 -0.099183 -0.086314
-0.037206 -0.090051 -0.083408
-0.025708 -0.100481 -0.071592
-0.006861 -0.096602 -0.094068
-0.003504 -0.090367 -0.118218
-0.017535 -0.089471 -0.127734
-0.031546 -0.088162 -0.103068
-0.025948 -0.088006 -0.129873
-0.052432 -0.093851 -0.028481
-0.052135 -0.091972 -0.038262
-0.058841 -0.074395 -0.076599
-0.067879 -0.070395 -0.032053
-0.068653 -0.073543 0.008229
-0.068687 -0.071500 -0.011821
-0.046711 -0.096014 -0.126043
-0.047419 -0.098664 -0.129318
-0.028431 -0.098342 -0.149889
-0.033668 -0.104306 -0.151209
-0.059445 -0.073090 -0.080944
-0.065990 -0.071217 -0.086256
-0.053323 -0.081574 -0.110080
-0.068323 -0.064701 -0.040114
-0.067841 -0.056227 -0.060407
-0.052829 -0.117260 -0.134942
-0.052414 -0.137113 -0.142851
-0.066840 -0.071530 -0.092343
-0.066743 -0.067570 -0.095282
-0.066177 -0.062786 -0.071353
-0.050440 -0.149530 -0.149770
-0.037566 -0.153099 -0.167550
-0.041643 -0.173170 -0.168717
-0.056204 -0.154445 -0.150196
-0.040798 -0.206538 -0.184236
-0.032480 -0.203876 -0.193493
-0.058536 -0.177041 -0.164393
-0.041789 -0.220522 -0.186469
-0.060114 -0.193400 -0.188558
-0.060257 -0.194533 -0.190363
-0.040575 -0.253270 -0.191479
-0.057980 -0.212126 -0.195468
-0.048782 -0.248989 -0.186813
-0.044103 -0.301553 -0.181030
-0.052930 -0.269690 -0.183419
-0.044651 -0.334778 -0.179928
-0.051267 -0.330589 -0.174304
-0.052447 -0.330931 -0.173962
-0.064758 -0.321448 -0.177023
-0.049020 -0.371765 -0.153525
-0.048004 -0.384878 -0.151507
-0.064064 -0.373850 -0.152508
-0.053476 -0.361833 -0.159663
-0.069371 -0.385163 -0.152036
-0.076079 -0.385043 -0.165519
-0.075225 -0.380014 -0.176904
-0.038375 -0.384065 -0.167344
-0.054615 -0.357011 -0.193490
-0.051821 -0.345972 -0.195129
-0.041943 -0.334163 -0.190795
-0.068352 -0.354767 -0.173845
-0.041417 -0.320065 -0.189895
-0.069761 -0.350700 -0.178244
-0.063531 -0.335870 -0.174258
-0.065435 -0.352661 -0.190961
-0.068173 -0.336819 -0.192661
-0.056372 -0.343746 -0.198204
-0.051504 -0.344555 -0.196730
-0.068587 -0.324438 -0.189452
-0.069029 -0.328752 -0.188917
-0.055744 -0.327339 -0.205106
-0.062122 -0.317316 -0.201724
-0.045539 -0.291704 -0.203345
-0.044429 -0.293025 -0.201196
-0.042398 -0.300761 -0.196534
-0.048494 -0.286052 -0.206401
-0.042181 -0.262937 -0.209206
-0.035086 -0.242353 -0.200979
-0.031783 -0.219785 -0.208309
-0.033850 -0.225198 -0.217066
-0.036319 -0.191391 -0.207833
-0.039208 -0.229650 -0.222518
-0.052324 -0.232487 -0.223505
-0.053900 -0.227767 -0.224522
-0.044293 -0.182274 -0.217318
-0.036216 -0.178758 -0.195986
-0.039826 -0.169414 -0.200199
-0.035284 -0.159383 -0.189188
-0.032281 -0.141072 -0.188853
-0.037403 -0.144870 -0.197800
-0.031184 -0.130183 -0.182466
-0.036165 -0.128354 -0.164090
-0.024388 -0.107327 -0.176920
-0.024114 -0.096224 -0.155115
-0.037629 -0.114776 -0.205732
-0.035341 -0.113652 -0.203211
-0.040910 -0.125100 -0.207102
-0.021662 -0.101171 -0.185876
-0.019465 -0.093903 -0.188396
-0.036318 -0.103412 -0.207854
-0.008784 -0.089915 -0.162366
-0.004904 -0.088900 -0.179624
-0.011701 -0.088805 -0.179817
-0.016915 -0.085695 -0.202673
-0.044568 -0.108783 -0.216907
-0.032335 -0.093928 -0.215736
-0.001995 -0.083543 -0.198689
-0.002394 -0.072057 -0.212152
-0.003286 -0.061662 -0.221693
-0.004325 -0.026261 -0.242504
-0.019178 -0.054755 -0.234193
-0.010679 -0.026496 -0.244037
-0.029830 -0.085149 -0.223217
-0.026115 -0.019683 -0.250955
-0.027396 -0.069587 -0.230516
-0.035772 -0.061055 -0.239901
-0.035124 -0.046917 -0.245558
-0.026685 -0.036683 -0.244258
-0.043649 -0.074101 -0.237231
-0.032691 0.007249 -0.249661
-0.033075 0.023712 -0.247810
-0.022984 0.013701 -0.254667
-0.057980 -0.025941 -0.239764
-0.048180 -0.011057 -0.245328
-0.058731 -0.048961 -0.239299
-0.050772 -0.047598 -0.243810
-0.049562 -0.060154 -0.243031
-0.060671 -0.069751 -0.232731
-0.072688 -0.008947 -0.214757
-0.069092 -0.041583 -0.231322
-0.068430 -0.081541 -0.226718
-0.073642 -0.044337 -0.223995
-0.078863 -0.022412 -0.209041
-0.080429 -0.054481 -0.215141
-0.072784 -0.056989 -0.227814
-0.050887 -0.105511 -0.218657
-0.064680 -0.116484 -0.211373
-0.053713 -0.127455 -0.212241
-0.081773 -0.065309 -0.207200
-0.072843 -0.094729 -0.214204
-0.064628 -0.121020 -0.210670
-0.047472 -0.156974 -0.210999
-0.075281 -0.103207 -0.202822
-0.072289 -0.117833 -0.202356
-0.075395 -0.111666 -0.197778
-0.081383 -0.076069 -0.201223
-0.081301 -0.076305 -0.201295
-0.082745 -0.095526 -0.186559
-0.051262 -0.187015 -0.219960
-0.063202 -0.159222 -0.200393
-0.062200 -0.166882 -0.199565
-0.059864 -0.191601 -0.210550
-0.063226 -0.166952 -0.196501
-0.060133 -0.209614 -0.220336
-0.058934 -0.211928 -0.222021
-0.066175 -0.145431 -0.200718
-0.072198 -0.131532 -0.191611
-0.065732 -0.172213 -0.184621
-0.069995 -0.151146 -0.183483
-0.060927 -0.199400 -0.196460
-0.066101 -0.170970 -0.165004
-0.060618 -0.222390 -0.215787
-0.058363 -0.228126 -0.198826
-0.058321 -0.236212 -0.196848
-0.058530 -0.231780 -0.200238
-0.063662 -0.280280 -0.191564
-0.063832 -0.311401 -0.199660
-0.072705 -0.148388 -0.172323
-0.080051 -0.119551 -0.172088
-0.071502 -0.153090 -0.160375
-0.069249 -0.149650 -0.148586
-0.070701 -0.139941 -0.142601
-0.055978 -0.136311 -0.140840
-0.082795 -0.113304 -0.154989
-0.082177 -0.114121 -0.161354
-0.079878 -0.122726 -0.152477
-0.088072 -0.087394 -0.174269
-0.072109 -0.118104 -0.133300
-0.081415 -0.114023 -0.147988
-0.067418 -0.091756 -0.125348
-0.075896 -0.072789 -0.122811
-0.080077 -0.103790 -0.134938
-0.087534 -0.090793 -0.163545
-0.087407 -0.091958 -0.163583
-0.077998 -0.094376 -0.128543
-0.071551 -0.058954 -0.113237
-0.089372 -0.069383 -0.159665
-0.091450 -0.057773 -0.172662
-0.089123 -0.064536 -0.183098
-0.079360 -0.057879 -0.128346
-0.076014 -0.042850 -0.121421
-0.088533 -0.066562 -0.148394
-0.089556 -0.043528 -0.146221
-0.085512 -0.042406 -0.136379
-0.089238 -0.035206 -0.181134
-0.089320 -0.039819 -0.144562
-0.090114 -0.040686 -0.152210
-0.083921 -0.015260 -0.189347
-0.084006 -0.021166 -0.192858
-0.086947 -0.019066 -0.181771
-0.082596 -0.028182 -0.131293
-0.088905 -0.025867 -0.154032
-0.087850 -0.008893 -0.150922
-0.082521 -0.006155 -0.185706
-0.075192 0.007366 -0.195293
-0.072576 -0.001408 -0.210377
-0.081611 0.000975 -0.181875
-0.078311 0.011535 -0.183658
-0.086529 -0.001514 -0.163975
-0.052535 0.031400 -0.217392
-0.066202 0.019097 -0.208219
-0.080373 0.020715 -0.171017
-0.078166 -0.021446 -0.120300
-0.080281 -0.024269 -0.126663
-0.076058 -0.019416 -0.114914
-0.082554 0.015443 -0.151378
-0.085275 0.001769 -0.137769
-0.081652 0.017655 -0.134727
-0.068179 -0.028076 -0.102928
-0.067466 -0.027348 -0.076215
-0.080114 0.018560 -0.128331
-0.075155 0.016045 -0.107848
-0.079553 0.024315 -0.137329
-0.078888 0.021942 -0.126446
-0.068340 0.044994 -0.119617
-0.071587 0.011273 -0.102888
-0.070422 0.030434 -0.105408
-0.070432 0.042145 -0.147094
-0.060692 0.040881 -0.183336
-0.067870 0.035672 -0.174496
-0.065676 0.049970 -0.130578
-0.062316 0.053833 -0.138083
-0.055374 0.058821 -0.145579
-0.050056 0.066096 -0.135338
-0.056878 0.056670 -0.120615
-0.046653 0.051499 -0.194681
-0.056707 0.048617 -0.176675
-0.054254 0.056664 -0.158219
-0.044969 0.066296 -0.155553
-0.061180 0.046344 -0.099425
-0.063919 0.043354 -0.099817
-0.029012 0.078961 -0.168079
-0.062747 -0.000299 -0.078067
-0.069370 -0.039337 -0.063356
-0.025698 0.083604 -0.148503
-0.036652 0.075751 -0.150404
-0.042654 0.068255 -0.112655
-0.064359 -0.016846 -0.053634
-0.065372 -0.020019 -0.050428
-0.070021 -0.058723 -0.026663
-0.070781 -0.040883 -0.044666
-0.070470 -0.061332 -0.010865
-0.061450 0.006814 -0.071946
-0.059533 0.008192 -0.058615
-0.059428 0.022361 -0.078527
-0.065684 -0.018287 -0.030598
-0.065140 -0.018013 -0.044673
-0.058612 0.011202 -0.051700
-0.070877 -0.063021 0.004147
-0.072778 -0.044444 0.007093
-0.069474 -0.070662 0.032207
-0.071017 -0.063501 0.014932
-0.067293 -0.021476 -0.016775
-0.072408 -0.038582 0.000647
-0.070904 -0.029891 0.014508
-0.071398 -0.053763 0.033874
-0.072242 -0.048927 0.042626
-0.069141 -0.062918 0.058664
-0.070962 -0.045820 0.068106
-0.069779 -0.025333 0.045579
-0.070727 -0.029888 0.041044
-0.070680 -0.028911 0.019126
-0.069482 -0.036115 0.073937
-0.069951 -0.036856 0.070949
-0.064171 -0.006832 -0.004167
-0.061950 0.002723 0.004939
-0.062568 0.003900 0.031243
-0.060525 0.010527 0.023093
-0.058137 0.009003 -0.023022
-0.061043 0.000515 -0.027345
-0.055509 0.017683 -0.012423
-0.056024 0.020228 0.002112
-0.055323 0.023513 -0.046646
-0.055206 0.023262 -0.043840
-0.053624 0.029201 0.007245
-0.050094 0.037377 -0.044139
-0.051106 0.035116 -0.050745
-0.054388 0.033869 -0.064935
-0.050160 0.037912 0.009018
-0.047787 0.044193 -0.052827
-0.047309 0.044598 -0.047225
-0.044766 0.049816 -0.001620
-0.039885 0.060051 -0.062049
-0.038789 0.061006 -0.044585
-0.036437 0.062888 -0.061625
-0.037826 0.062256 -0.044138
-0.025490 0.070787 -0.026559
-0.024034 0.070815 -0.057042
-0.038579 0.064678 -0.087160
-0.015886 0.073243 -0.040870
-0.020312 0.073167 -0.055840
-0.026377 0.073486 -0.086047
-0.040339 0.067838 -0.105626
-0.005819 0.074672 -0.055986
-0.019900 0.076594 -0.090595
-0.010975 0.087821 -0.133960
-0.002103 0.082566 -0.100588
-0.001001 0.087359 -0.122522
0.002374 0.081860 -0.096570
0.005414 0.082722 -0.106627
-0.004340 0.089307 -0.152200
-0.006350 0.088961 -0.148843
-0.019363 0.085533 -0.173873
-0.010150 0.087755 -0.172402
0.012219 0.087546 -0.133849
0.018049 0.085319 -0.129964
0.003815 0.089305 -0.163515
0.020054 0.086506 -0.136474
0.013430 0.077999 -0.092527
-0.017062 0.078460 -0.203978
-0.036393 0.069385 -0.174576
-0.017142 0.074746 -0.215153
0.016192 0.076303 -0.076397
0.009013 0.074668 -0.054629
0.022903 0.074222 -0.076630
0.034570 0.064282 -0.071692
-0.019648 0.072793 -0.214114
-0.040635 0.060113 -0.189980
-0.043190 0.046525 -0.219496
-0.047336 0.040157 -0.220111
-0.049653 0.032973 -0.223186
-0.049364 0.016546 -0.238769
-0.033171 0.051492 -0.236044
-0.034292 0.038090 -0.242464
-0.028280 0.060364 -0.229842
-0.011081 0.052670 -0.252701
-0.004445 0.073669 -0.223801
-0.002890 0.081258 -0.203809
0.008198 0.068656 -0.232143
0.009561 0.068447 -0.232216
0.002372 0.085719 -0.191282
0.018697 0.038773 -0.254354
0.016119 0.082490 -0.191129
0.005899 0.085839 -0.188770
0.021961 0.085747 -0.150282
0.022985 0.065397 -0.227713
0.028391 0.069418 -0.206421
0.032623 0.043195 -0.241656
0.034235 0.051610 -0.233058
0.022932 0.084059 -0.167534
0.023439 0.081201 -0.119790
0.024880 0.078304 -0.186504
0.031130 0.066066 -0.210016
0.033528 0.074244 -0.168252
0.035966 0.070617 -0.172115
0.043424 0.053296 -0.201832
0.039644 0.047387 -0.227446
0.046022 0.065838 -0.153489
0.050776 0.054868 -0.175480
0.049215 0.057886 -0.171600
0.039168 0.070136 -0.116029
0.036119 0.067818 -0.097277
0.066082 0.050215 -0.137595
0.061389 0.055035 -0.135406
0.057788 0.039905 -0.192487
0.057039 0.034186 -0.205590
0.061914 0.025108 -0.209663
0.071589 0.034139 -0.166729
0.069524 0.019941 -0.199022
0.065379 0.035392 -0.180631
0.039878 0.024744 -0.242885
0.058669 0.018789 -0.223569
0.021145 0.019202 -0.255272
0.086354 -0.006064 -0.173757
0.079650 0.012839 -0.179116
0.067090 0.011282 -0.212920
0.070418 0.006296 -0.209650
0.076733 -0.004223 -0.202246
0.047811 -0.004507 -0.242917
0.045242 -0.007291 -0.244852
0.055421 0.012161 -0.234919
0.084281 0.008478 -0.150430
0.083137 0.013632 -0.159208
0.074176 0.036189 -0.137707
0.079233 0.025334 -0.153747
0.042076 -0.015171 -0.249464
0.079652 -0.037350 -0.213314
0.073039 -0.027902 -0.221936
0.010772 -0.016135 -0.248896
0.088827 -0.044653 -0.186971
0.082690 -0.032771 -0.203692
0.087300 -0.031239 -0.183653
0.089496 -0.036779 -0.178477
0.019250 -0.040839 -0.240993
0.022612 -0.039907 -0.242079
0.012981 -0.046336 -0.236228
0.009868 -0.049193 -0.233648
0.021736 -0.078669 -0.222384
0.014527 -0.063548 -0.227824
0.036973 -0.038592 -0.248051
0.028372 -0.039676 -0.244322
0.028216 -0.061831 -0.235148
0.057304 -0.022973 -0.240834
0.067083 -0.051920 -0.234907
0.069380 -0.046029 -0.232188
0.075165 -0.042063 -0.222212
0.033665 -0.079063 -0.228913
0.056862 -0.060385 -0.238649
0.080276 -0.064608 -0.210074
0.086642 -0.054652 -0.193506
0.083927 -0.057966 -0.204564
0.060215 -0.076054 -0.231249
0.071258 -0.079387 -0.224659
0.043881 -0.089578 -0.228676
0.063148 -0.090508 -0.225019
0.021355 -0.084322 -0.207537
0.032627 -0.093029 -0.218223
0.024173 -0.088322 -0.206457
0.012789 -0.088807 -0.190209
0.005112 -0.089730 -0.182268
0.005833 -0.091756 -0.158996
0.017317 -0.089019 -0.188128
0.019992 -0.096087 -0.189070
0.021709 -0.093473 -0.160880
0.024340 -0.108079 -0.191336
0.033176 -0.104924 -0.203438
0.029831 -0.102644 -0.154087
0.025475 -0.105236 -0.170053
0.069531 -0.103537 -0.214412
0.071219 -0.103917 -0.213701
0.030441 -0.125156 -0.181835
0.033445 -0.131198 -0.177101
0.037346 -0.140717 -0.166761
0.045025 -0.115172 -0.215440
0.039081 -0.115953 -0.207681
0.029546 -0.125093 -0.192770
0.034864 -0.161651 -0.185505
0.039173 -0.152140 -0.199170
0.045592 -0.162115 -0.210156
0.030927 -0.209439 -0.204971
0.031042 -0.213110 -0.205768
0.036522 -0.192944 -0.209928
0.033541 -0.232919 -0.205466
0.039314 -0.201144 -0.222311
0.034557 -0.215403 -0.219459
0.045814 -0.170862 -0.213320
0.044725 -0.189749 -0.221201
0.047993 -0.121479 -0.214529
0.060516 -0.115211 -0.212557
0.063205 -0.152671 -0.204701
0.059923 -0.176131 -0.207872
0.070057 -0.124255 -0.204429
0.069927 -0.121882 -0.206251
0.067312 -0.145442 -0.196816
0.073610 -0.126468 -0.192135
0.069742 -0.146067 -0.188008
0.063608 -0.166198 -0.195140
0.078253 -0.126503 -0.168978
0.075377 -0.135682 -0.168243
0.070849 -0.158039 -0.174801
0.078208 -0.100026 -0.196540
0.083382 -0.088197 -0.188606
0.086089 -0.065539 -0.186395
0.079478 -0.123094 -0.167688
0.080766 -0.120618 -0.157504
0.086691 -0.092169 -0.177112
0.090685 -0.056719 -0.165787
0.090488 -0.054469 -0.162504
0.089868 -0.036760 -0.153740
0.091308 -0.037901 -0.168059
0.085572 -0.100846 -0.153834
0.089372 -0.061138 -0.158026
0.083361 -0.111553 -0.151590
0.071628 -0.156401 -0.164860
0.078613 -0.104665 -0.130772
0.079846 -0.114483 -0.143578
0.086401 -0.041915 -0.137652
0.088714 -0.017582 -0.159749
0.085571 -0.035215 -0.136030
0.083190 0.012366 -0.138874
0.080158 -0.068101 -0.130256
0.077884 -0.090460 -0.127943
0.080762 0.017432 -0.129649
0.077957 0.025732 -0.131419
0.081016 -0.020039 -0.126948
0.084620 -0.005487 -0.131355
0.075085 -0.065146 -0.120424
0.069468 -0.035107 -0.106929
0.071285 0.034726 -0.115538
0.061187 0.052585 -0.120644
0.072950 0.001872 -0.106006
0.068280 -0.031680 -0.103667
0.049799 0.056466 -0.097768
0.067848 0.038913 -0.104616
0.045328 0.055345 -0.082558
0.066786 0.013831 -0.095292
0.064466 0.025254 -0.092800
0.045421 0.053712 -0.071702
0.032468 0.065254 -0.059799
0.057659 0.024066 -0.067386
0.059435 0.020089 -0.073940
0.046707 0.049525 -0.059227
0.055222 0.038585 -0.077156
0.063045 -0.001885 -0.080413
0.063095 -0.002872 -0.079863
0.058230 0.017824 -0.060146
0.060919 0.002846 -0.062957
0.047950 0.043347 -0.049574
0.048640 0.041445 -0.046976
0.035005 0.064766 -0.032109
0.041576 0.055349 -0.034311
0.060835 -0.002251 -0.055648
0.056920 0.018662 -0.049513
0.053981 0.025155 -0.034825
0.068232 -0.034317 -0.063432
0.064354 -0.010714 -0.085129
0.066833 -0.033004 -0.085784
0.065036 -0.013915 -0.092975
0.061481 -0.006678 -0.053780
0.061504 -0.004732 -0.034794
0.067783 -0.031900 -0.055211
0.063978 -0.015231 -0.046930
0.053152 0.026443 -0.007638
0.057858 0.011890 -0.006761
0.067848 -0.044904 -0.074148
0.064900 -0.016043 -0.026930
0.071769 -0.040167 -0.030223
0.067365 -0.062156 -0.058374
0.069595 -0.043492 -0.056387
0.061332 0.006953 0.012532
0.060785 0.006089 0.004425
0.066772 -0.069005 -0.094006
0.066610 -0.061470 -0.100516
0.072621 -0.072489 -0.115859
0.067825 -0.064896 -0.106144
0.073820 -0.081702 -0.119107
0.065409 -0.013230 -0.006757
0.067936 -0.022107 0.001051
0.071476 -0.036454 -0.003797
0.072004 -0.038014 0.002945
0.069303 -0.084924 -0.113417
0.064306 -0.109592 -0.128503
0.072465 -0.045595 -0.002674
0.070458 -0.066857 0.005382
0.067922 -0.066079 -0.044010
0.068228 -0.069326 -0.034150
0.070356 -0.065099 0.025471
0.066187 -0.073055 -0.031185
0.063517 -0.075108 -0.045239
0.058079 -0.093075 0.008208
0.063614 -0.081782 -0.003431
0.057134 -0.091924 -0.004714
0.063451 -0.080447 -0.013743
0.062191 -0.085297 0.031018
0.057674 -0.080920 -0.056641
0.057328 -0.081894 -0.054257
0.052849 -0.084721 -0.068520
0.049847 -0.100723 -0.002126
0.047107 -0.102528 -0.004915
0.038767 -0.105493 -0.028114
0.036877 -0.106207 -0.032373
0.065145 -0.074564 -0.104612
0.048116 -0.086138 -0.086287
0.055136 -0.095178 -0.119241
0.024640 -0.103606 -0.064171
0.032774 -0.108148 -0.037292
0.039080 -0.094142 -0.069797
0.035877 -0.094021 -0.079519
0.046250 -0.104177 0.000767
0.018262 -0.111715 -0.041147
0.017751 -0.111263 -0.043005
0.026273 -0.115644 -0.018148
0.025035 -0.118213 0.002057
0.004522 -0.114568 -0.040267
0.005227 -0.107971 -0.060913
0.023731 -0.119586 0.012919
0.001408 -0.121572 -0.005821
0.004209 -0.100746 -0.081875
0.000670 -0.093947 -0.101508
0.008744 -0.123620 0.040040
0.009745 -0.123176 0.034567
0.015798 -0.092804 -0.101393
0.001196 -0.090806 -0.109822
0.035648 -0.090480 -0.096572
0.024248 -0.094747 -0.092262
0.006858 -0.090373 -0.111016
0.020384 -0.089099 -0.142844
0.033486 -0.086336 -0.116161
0.025970 -0.088152 -0.123255
0.036494 -0.098162 -0.138945
0.034688 -0.105889 -0.151467
0.054411 -0.101109 -0.124217
0.048246 -0.114943 -0.140780
0.049938 -0.137470 -0.146640
0.051054 -0.127528 -0.141489
0.057303 -0.111947 -0.128924
0.043854 -0.145729 -0.158078
0.055013 -0.144326 -0.145249
0.041393 -0.164724 -0.165877
0.055987 -0.166982 -0.157192
0.068476 -0.166906 -0.167157
0.041702 -0.176487 -0.170417
0.053081 -0.181805 -0.167667
0.065505 -0.175527 -0.172766
0.061328 -0.190481 -0.187194
0.057546 -0.203904 -0.188071
0.034074 -0.220947 -0.196834
0.041117 -0.215651 -0.185845
0.059277 -0.205169 -0.201999
0.038725 -0.258200 -0.196272
0.060752 -0.199764 -0.209651
0.061097 -0.218081 -0.210964
0.042378 -0.307062 -0.182657
0.041397 -0.328318 -0.183969
0.059340 -0.226025 -0.205123
0.056707 -0.219058 -0.192198
0.060106 -0.235759 -0.208191
0.059995 -0.251111 -0.203606
0.056448 -0.262515 -0.186600
0.056997 -0.298840 -0.177372
0.042486 -0.250818 -0.216344
0.052287 -0.276753 -0.210030
0.051072 -0.288709 -0.206662
0.055752 -0.277873 -0.206805
0.039641 -0.274591 -0.195755
0.042209 -0.316039 -0.193521
0.050209 -0.332633 -0.204312
0.042839 -0.329958 -0.195738
0.043589 -0.331386 -0.197057
0.042807 -0.336869 -0.191797
0.041059 -0.360268 -0.176654
0.045822 -0.378960 -0.187758
0.050947 -0.379734 -0.191368
0.067173 -0.369560 -0.190605
0.074990 -0.377251 -0.175370
0.075662 -0.380777 -0.171543
0.074996 -0.383664 -0.163152
0.068572 -0.379335 -0.152086
0.064214 -0.383243 -0.147331
0.057785 -0.358069 -0.163968
0.046766 -0.350946 -0.170514
0.053935 -0.349484 -0.168077
0.060317 -0.331485 -0.172163
0.066113 -0.328434 -0.177615
0.066686 -0.348344 -0.176966
0.058278 -0.338584 -0.205332
0.054503 -0.334582 -0.205224
0.062099 -0.298473 -0.199743
0.066016 -0.306079 -0.194566
0.007505 -0.125715 0.148153
0.013412 -0.114732 0.120547
0.012612 -0.113961 0.117937
0.021248 -0.141251 0.163275
0.026310 -0.118770 0.126654
0.036088 -0.126020 0.132638
0.036606 -0.145846 0.138495
0.028605 -0.149430 0.147801
0.038378 -0.155501 0.140365
0.027477 -0.172794 0.164141
0.036562 -0.191526 0.148322
0.043021 -0.193180 0.142999
0.033348 -0.200696 0.154051
0.033519 -0.212442 0.155375
0.036372 -0.227728 0.150379
0.033098 -0.224588 0.158740
0.046161 -0.236241 0.142171
0.034196 -0.244680 0.156001
0.037603 -0.253671 0.151463
0.046300 -0.277359 0.144114
0.041461 -0.283345 0.148491
0.052595 -0.266317 0.144544
0.055581 -0.266359 0.146748
0.040159 -0.293689 0.151715
0.048640 -0.312160 0.142719
0.038614 -0.314801 0.158388
0.039885 -0.344361 0.157865
0.061357 -0.308862 0.150306
0.058534 -0.293126 0.149826
0.061613 -0.298009 0.155037
0.058564 -0.311594 0.143050
0.060901 -0.319264 0.144655
0.043161 -0.334525 0.148413
0.050981 -0.352810 0.148713
0.054194 -0.269009 0.169362
0.056328 -0.317040 0.169579
0.045293 -0.289750 0.168196
0.045968 -0.309577 0.169303
0.041192 -0.330379 0.165544
0.043739 -0.334382 0.170313
0.044150 -0.337090 0.171219
0.039307 -0.356771 0.169948
0.050877 -0.363015 0.180719
0.051034 -0.365187 0.181682
0.063008 -0.376260 0.189025
0.065334 -0.366275 0.174158
0.070502 -0.375629 0.166958
0.058348 -0.379804 0.150536
0.061125 -0.369534 0.153154
0.039422 -0.372869 0.158092
0.038644 0.174776 0.396387
-0.006609 0.027468 0.427313
0.002312 0.028131 0.426785
0.022043 0.018572 0.434545
0.013359 0.015319 0.434766
-0.003431 0.010832 0.434712
0.001117 -0.007930 0.451961
0.011889 0.024158 0.435299
0.006059 0.027776 0.429454
-0.017971 0.020915 0.433519
-0.006793 0.023478 0.442528
0.010977 0.014442 0.449123
0.012676 0.010386 0.450857
-0.002563 0.018472 0.448111
0.001928 0.000996 0.457718
0.002105 0.057359 0.340586
0.011416 0.044611 0.359270
0.006516 0.037000 0.379991
0.027394 0.087317 0.340958
0.010131 0.037327 0.382168
0.006456 0.031914 0.399743
0.029365 0.119282 0.339770
0.032406 0.077997 0.343544
0.014657 0.035833 0.404511
0.004730 0.012822 0.424599
0.017553 0.030264 0.413552
0.012710 0.012350 0.427283
0.018871 0.008567 0.438088
0.010850 -0.007606 0.450858
0.022651 0.024014 0.428140
0.002911 0.000761 0.465258
0.005573 0.008557 0.469308
0.008452 0.022114 0.470854
0.013822 0.040887 0.466039
0.005839 0.049544 0.465693
0.024797 0.026124 0.440949
0.023273 0.030420 0.453172
0.018122 0.058419 0.438484
0.006351 0.070434 0.451110
0.020385 0.052957 0.438288
0.023411 0.048291 0.433387
0.018901 0.062109 0.434461
0.002528 0.077975 0.447803
0.023820 0.051866 0.429443
0.026143 0.067019 0.422924
0.028205 0.050223 0.401976
0.031138 0.052003 0.399872
0.033990 0.053187 0.396757
0.019303 0.041385 0.396763
0.031839 0.049782 0.394407
0.029286 0.045248 0.389651
0.022448 0.050222 0.351497
0.032662 0.056434 0.368641
0.036289 0.063719 0.396889
0.038612 0.074032 0.371110
0.038767 0.078459 0.365712
0.036884 0.098862 0.353404
0.037378 0.068342 0.394445
0.038156 0.094859 0.391014
0.034544 0.078516 0.408092
0.009969 0.100904 0.434672
0.002923 0.121814 0.426529
0.002182 0.141549 0.416289
0.027061 0.111939 0.419465
0.025869 0.129817 0.416573
0.016921 0.141441 0.412528
0.037712 0.109539 0.395093
0.035492 0.124373 0.402761
0.035320 0.125408 0.392266
0.037161 0.112394 0.368339
0.036285 0.115012 0.362992
0.034639 0.118573 0.356590
0.029431 0.126117 0.344340
0.032439 0.145534 0.379632
0.023412 0.153605 0.395891
0.006587 0.151053 0.406901
0.010021 0.157940 0.395717
0.019188 0.167657 0.395662
0.029903 0.172403 0.378450
0.027162 0.154829 0.352158
0.020939 0.163490 0.350544
0.014373 0.168692 0.352942
0.023485 0.155446 0.340389
0.021334 0.151891 0.328824
-0.028835 0.076391 0.303714
-0.027357 0.052943 0.285911
-0.029770 0.077505 0.298471
-0.029326 0.053477 0.282655
-0.033630 0.048619 0.271700
-0.027490 0.031971 0.273772
-0.032469 0.036363 0.265545
-0.032548 0.068273 0.278660
-0.030561 0.097613 0.281736
-0.030511 0.097886 0.279869
-0.033711 0.071833 0.271249
-0.029463 0.102871 0.258968
-0.036255 0.057482 0.259662
-0.034975 0.026491 0.257968
-0.037088 0.045238 0.254377
-0.032732 -0.008647 0.251559
-0.036511 -0.001030 0.246915
-0.032098 0.099533 0.246393
-0.029208 0.107486 0.245324
-0.041711 0.045099 0.240103
-0.020491 0.119986 0.229746
-0.027860 0.108346 0.236145
-0.016004 0.122236 0.221914
-0.037096 0.089452 0.233761
-0.042444 0.075021 0.224457
-0.029860 0.101939 0.218244
-0.052715 0.005925 0.228809
-0.045870 0.031887 0.232381
-0.046135 -0.025348 0.238634
-0.053037 0.032818 0.216657
-0.052751 0.014168 0.226142
-0.047234 -0.030608 0.238488
-0.056453 -0.048899 0.232011
-0.043586 -0.041941 0.237860
-0.047974 -0.065514 0.230065
-0.062370 -0.026080 0.225981
-0.066683 -0.045539 0.221846
-0.036361 -0.086030 0.226666
-0.060056 -0.060359 0.224023
-0.044150 -0.099761 0.216552
-0.044355 -0.112123 0.209554
-0.063338 -0.086387 0.207853
-0.066807 -0.065620 0.213540
-0.048304 -0.128843 0.193468
-0.052151 -0.142373 0.184508
-0.065804 -0.147819 0.169531
-0.060658 -0.112695 0.194027
-0.062035 -0.102399 0.198728
-0.073283 -0.122110 0.165415
-0.070947 -0.101527 0.184191
-0.076278 -0.104261 0.171929
-0.076959 -0.095097 0.175455
-0.075547 -0.080545 0.185543
-0.079999 -0.089770 0.164975
-0.081625 -0.079255 0.157210
-0.081182 -0.057140 0.180971
-0.082997 -0.075326 0.148773
-0.078517 -0.056314 0.191237
-0.082255 -0.050903 0.181399
-0.082306 -0.049134 0.146035
-0.078414 -0.057871 0.136027
-0.078462 -0.031315 0.196528
-0.083049 -0.039695 0.182150
-0.083389 -0.039906 0.163442
-0.077274 -0.041222 0.138464
-0.082590 -0.012601 0.171888
-0.071675 -0.014095 0.135899
-0.072734 -0.020333 0.137723
-0.067282 -0.035745 0.118936
-0.080079 0.000982 0.170582
-0.074093 -0.005423 0.143576
-0.074661 0.000060 0.147310
-0.076459 -0.019488 0.203961
-0.072918 -0.026780 0.210769
-0.067270 0.003919 0.210520
-0.074424 0.004926 0.194642
-0.074112 0.020894 0.173627
-0.074803 0.018223 0.161665
-0.063959 0.017017 0.208787
-0.071650 0.025921 0.178902
-0.068734 0.027228 0.195146
-0.062461 0.039292 0.196627
-0.067805 0.035114 0.180757
-0.050156 0.049127 0.207548
-0.047555 0.057797 0.212187
-0.047621 0.057150 0.210825
-0.061017 0.060161 0.169097
-0.069455 0.035359 0.170991
-0.041073 0.082610 0.216418
-0.027339 0.104116 0.207406
-0.044173 0.080616 0.187822
-0.038346 0.088935 0.191451
-0.044409 0.081251 0.186058
-0.047013 0.081171 0.171278
-0.031829 0.093796 0.196561
-0.031789 0.094447 0.198719
-0.055026 0.071497 0.165756
-0.029284 0.098526 0.181244
-0.038050 0.090159 0.159665
-0.011879 0.123063 0.215674
-0.003938 0.123872 0.208041
-0.002496 0.120871 0.201912
-0.013992 0.106775 0.167750
0.003077 0.112729 0.180780
-0.002099 0.112329 0.176016
-0.017409 0.103272 0.156484
-0.036316 0.089625 0.146520
-0.009486 0.107598 0.144289
-0.017502 0.096439 0.121544
-0.005068 0.107318 0.135184
-0.027935 0.094338 0.140063
0.003538 0.109471 0.152705
0.022614 0.100343 0.171860
0.028252 0.095886 0.171490
0.023102 0.098414 0.150940
0.014453 0.105821 0.159286
0.035221 0.092238 0.171383
0.012562 0.105533 0.136151
0.046669 0.083454 0.170252
0.049276 0.075839 0.180722
0.053487 0.074290 0.157483
0.057820 0.067728 0.147543
0.061613 0.053500 0.175140
0.061588 0.059542 0.157261
0.053206 0.063255 0.188363
0.068432 0.028286 0.196029
0.072531 0.024538 0.172641
0.070466 0.032154 0.160582
0.071317 0.029165 0.162598
0.050087 0.072089 0.130071
0.061915 0.057061 0.143836
0.056314 0.060427 0.120687
0.037368 0.087051 0.135998
0.039808 0.082146 0.125237
0.032900 0.084593 0.116104
0.059077 0.050473 0.122232
0.074906 0.003501 0.149373
0.069702 0.010965 0.139440
0.069621 0.029470 0.145096
0.067281 0.020035 0.133185
0.076087 -0.018708 0.142471
0.056182 0.054226 0.112389
0.060679 0.029549 0.104039
0.065470 0.009225 0.122533
0.062300 0.015763 0.106770
0.052962 0.058816 0.100277
0.054650 0.056121 0.106040
0.057011 0.034619 0.090936
0.070256 -0.040771 0.126208
0.073226 -0.023816 0.133407
0.067469 -0.064750 0.126686
0.068606 -0.059990 0.127444
0.058959 0.023012 0.088742
0.060401 0.015166 0.090885
0.066252 -0.029591 0.112508
0.065260 -0.011110 0.104813
0.066560 -0.046284 0.120320
0.063841 -0.069920 0.099800
0.053982 -0.087808 0.097122
0.065491 -0.022391 0.098444
0.066188 -0.022946 0.089498
0.068887 -0.044383 0.092297
0.060757 0.013391 0.082596
0.060031 0.015937 0.087692
0.066374 -0.014765 0.065399
0.066417 -0.013229 0.060706
0.068220 -0.052414 0.082805
0.070824 -0.044165 0.071830
0.070289 -0.041129 0.075999
0.067000 -0.070651 0.065079
0.072156 -0.049038 0.033226
0.071027 -0.056441 0.042847
0.072227 -0.036705 0.022610
0.071410 -0.032549 0.027819
0.069216 -0.021382 0.030663
0.070125 -0.026415 0.040174
0.059911 0.012643 0.017516
0.062400 0.004850 0.020322
0.063868 -0.080608 0.053468
0.050939 -0.092514 0.080841
0.056360 -0.096021 0.032488
0.035014 -0.115170 0.015137
0.039441 -0.105091 0.071642
0.047567 -0.101906 0.059607
0.028467 -0.109500 0.096056
0.032416 -0.106295 0.099102
0.015356 -0.115105 0.100111
0.041552 -0.109484 0.041651
0.032879 -0.113820 0.058233
0.033782 -0.108982 0.073037
0.010950 -0.117520 0.082016
0.009123 -0.123521 0.044770
0.022275 -0.120158 0.046569
0.012476 -0.121451 0.058303
0.058589 0.024496 0.077843
0.064931 -0.002811 0.052874
0.058658 0.017279 0.029712
0.053979 0.042310 0.072988
0.053494 0.045329 0.084123
0.055696 0.026055 0.024946
0.046178 0.046599 -0.006459
0.054894 0.036420 0.060804
0.053156 0.041914 0.062123
0.049240 0.045230 0.037394
0.041589 0.055551 -0.012848
0.041197 0.064464 0.059787
0.041372 0.063264 0.055977
0.038660 0.064641 0.043802
0.042398 0.054934 0.010661
0.040785 0.058325 0.023274
0.038608 0.068816 0.063223
0.037389 0.076253 0.091733
0.030661 0.082884 0.099327
0.035687 0.075638 0.078499
0.029323 0.081103 0.086811
0.035032 0.067449 0.024311
0.028366 0.074649 0.053784
0.025711 0.071948 0.015016
0.023621 0.073924 0.026150
0.023331 0.072997 0.001267
0.026758 0.070152 -0.025104
0.011869 0.073617 -0.041549
0.002765 0.074720 -0.038674
0.005797 0.075843 -0.015413
-0.006629 0.074779 -0.032417
0.009021 0.076967 0.013809
-0.011896 0.075327 -0.016110
0.002157 0.077817 0.014734
-0.007738 0.077110 0.012873
0.009441 0.079608 0.042780
0.010997 0.082233 0.058539
-0.033644 0.066839 -0.007349
-0.042539 0.054686 0.010733
-0.012806 0.077306 0.023153
-0.004664 0.080785 0.047466
-0.026472 0.072322 0.023699
-0.036381 0.067545 0.035363
-0.027031 0.073336 0.037029
0.007725 0.089085 0.085672
-0.021528 0.082073 0.071022
-0.015615 0.081294 0.057092
0.014688 0.094749 0.112727
0.011879 0.097647 0.115290
-0.008403 0.101957 0.124645
-0.000940 0.094582 0.093114
-0.017131 0.092834 0.107714
-0.018956 0.090279 0.101437
-0.019636 0.089353 0.099366
-0.037218 0.081610 0.115460
-0.022814 0.084572 0.087459
-0.035244 0.071113 0.054502
-0.050688 0.069116 0.123412
-0.047454 0.068427 0.106751
-0.044093 0.063656 0.075985
-0.051566 0.064536 0.110495
-0.050015 0.073920 0.135749
-0.059927 0.064627 0.153662
-0.060066 0.063230 0.143629
-0.064939 0.038110 0.135500
-0.059068 0.046134 0.116684
-0.063953 0.031407 0.123623
-0.067882 0.012548 0.133818
-0.046547 0.059440 0.072195
-0.048591 0.050935 0.050058
-0.052473 0.036815 0.032256
-0.057483 0.031283 0.089005
-0.056781 0.042541 0.098827
-0.053916 0.042711 0.082596
-0.051123 0.046131 0.062852
-0.061974 0.025010 0.108046
-0.064030 0.012961 0.115635
-0.057277 0.023834 0.035974
-0.057888 0.026756 0.076147
-0.052560 0.041025 0.063924
-0.061744 0.006831 0.037722
-0.059143 0.015932 0.032424
-0.061808 0.009461 0.053134
-0.063152 0.005242 0.063913
-0.064760 -0.004359 0.105401
-0.060556 0.016894 0.096056
-0.062467 0.002684 0.083212
-0.063393 -0.003702 0.085116
-0.066888 -0.025358 0.088783
-0.068849 -0.035926 0.090884
-0.065827 -0.018102 0.083081
-0.065190 -0.009680 0.071546
0.067124 -0.387079 0.193878
0.043693 -0.386768 0.184099
0.069861 -0.387403 0.161218
0.058232 -0.387576 0.163726
0.040774 -0.387030 0.165812
0.047589 -0.386604 -0.168693
0.050397 -0.386280 -0.159989
0.053461 -0.386067 -0.186223
0.062822 -0.386790 -0.174674
0.071901 -0.386404 -0.170190
-0.055700 -0.387371 0.180488
-0.038227 -0.387330 0.186821
-0.043001 -0.387416 0.171168
-0.046831 -0.387497 0.161708
-0.044344 -0.386218 -0.179238
-0.042489 -0.385975 -0.184073
-0.062532 -0.386920 -0.170643
-0.027360 0.105392 0.416680
0.015248 0.170018 0.401546
-0.011671 0.175384 0.378450
-0.017106 0.165932 0.407644
0.018131 -0.169674 -0.262571
0.010996 -0.194145 -0.259092
0.025626 -0.135277 -0.258701
0.021118 -0.127775 -0.248299
0.022084 -0.101203 -0.247682
0.029915 -0.109537 -0.253872
0.040212 -0.072816 -0.273502
0.025910 -0.070615 -0.252088
0.032977 -0.071589 -0.258561
0.038952 -0.044763 -0.276399
0.035107 -0.059434 -0.262310
0.037366 -0.035391 -0.276623
0.026637 -0.033371 -0.259697
0.038503 -0.035692 -0.280063
0.033252 -0.025803 -0.270212
0.028293 -0.015842 -0.267817
0.028463 0.004618 -0.277183
0.025400 0.009575 -0.270136
0.014897 0.021807 -0.253175
-0.012131 -0.178661 -0.252725
-0.013379 -0.148618 -0.247348
-0.027819 -0.125112 -0.258183
-0.031155 -0.109180 -0.258311
-0.026112 -0.095851 -0.250629
-0.026143 -0.068776 -0.252420
-0.034908 -0.087815 -0.259817
-0.033934 -0.076578 -0.258953
-0.029618 -0.059318 -0.256745
-0.031442 -0.034409 -0.265205
-0.029378 -0.010394 -0.270846
-0.032114 -0.024345 -0.269392
-0.019772 0.038866 -0.253268
-0.021183 0.018168 -0.262922
0.026544 0.161253 0.409172
0.026483 0.151240 0.417037
-0.002291 0.171524 0.391096
0.000579 0.171037 0.393389
0.004550 0.168959 0.398628
0.010912 0.155352 0.414230
-0.008727 0.155881 0.416046
0.004222 0.147927 0.422991
-0.010888 0.143197 0.422552
-0.010410 0.131900 0.425100
-0.028206 0.137299 0.421662
0.019390 0.025128 -0.264301
0.020021 0.003679 -0.262930
0.016148 0.032777 -0.275072
0.023701 0.014099 -0.283234
0.025566 0.004778 -0.290292
0.035118 -0.029507 -0.279692
0.036546 -0.048551 -0.280413
0.035179 -0.037136 -0.296147
0.035129 -0.044844 -0.272949
0.033107 -0.082990 -0.270382
0.032881 -0.085599 -0.282194
0.028867 -0.095918 -0.262112
0.029149 -0.100731 -0.283613
0.031315 -0.100620 -0.270406
0.026179 -0.109482 -0.285773
0.026165 -0.126289 -0.270508
0.022995 -0.150118 -0.277007
0.022904 -0.160376 -0.275392
0.023570 -0.177245 -0.270259
0.017871 -0.191555 -0.263622
0.014455 -0.225216 -0.277017
-0.013905 0.029982 -0.253224
-0.015151 0.036391 -0.268744
-0.017714 0.028278 -0.275603
-0.028154 -0.011562 -0.274308
-0.021168 0.019683 -0.285186
-0.031379 -0.011634 -0.281475
-0.036394 -0.034963 -0.284222
-0.035727 -0.039307 -0.292677
-0.034060 -0.051989 -0.297459
-0.035976 -0.065594 -0.283794
-0.031636 -0.076785 -0.264322
-0.030427 -0.095281 -0.266399
-0.028346 -0.112282 -0.266112
-0.023841 -0.121386 -0.283267
-0.022525 -0.169370 -0.266166
-0.023531 -0.175706 -0.267799
-0.044426 0.114991 0.319914
-0.014439 0.170901 0.318103
-0.001407 0.176975 0.317793
0.024138 0.161365 0.316817
0.037546 0.132552 0.321670
0.037417 0.131229 0.312777
0.040102 0.130287 0.317053
0.043839 0.099078 0.321597
-0.037066 0.104937 0.230360
-0.025307 0.128408 0.228223
0.020688 0.133630 0.225286
0.039735 0.100506 0.242999
-0.047379 0.064077 0.217726
-0.037246 0.093028 0.205611
-0.019540 0.113052 0.199782
-0.010687 0.123716 0.204975
0.006392 0.124458 0.204431
0.024007 0.111562 0.201994
0.043367 0.084501 0.221418
0.049149 0.068956 0.220400
-0.047899 0.083235 0.264557
-0.037502 0.111134 0.264575
0.030362 0.126991 0.249834
0.032321 0.125995 0.253429
0.036552 0.108413 0.252461
0.039351 0.102931 0.255117
0.044132 0.098015 0.264178
0.008612 0.154449 0.412754
0.023382 0.149368 0.415758
0.018149 0.121452 0.422155
0.002357 0.145125 0.239049
0.008401 0.139793 0.235940
0.021907 0.128640 0.242459
0.020974 0.129046 0.251724
0.021890 0.121362 0.237190
0.032640 0.103274 0.255619
0.045569 0.064451 0.253605
0.011744 0.165226 0.304208
0.014363 0.164712 0.315488
0.013828 0.163246 0.303387
0.029781 0.130550 0.301125
0.033522 0.119459 0.311254
0.032057 0.121032 0.302658
0.036007 0.106884 0.305467
0.036521 0.091293 0.311911
-0.013641 0.169791 0.393207
-0.008557 0.161323 0.407717
-0.016931 0.153992 0.415344
-0.025069 0.142718 0.418177
-0.038195 0.124344 0.401728
-0.024996 0.154985 0.405979
-0.018214 0.165090 0.399445
-0.015173 0.165970 0.398657
0.025313 0.158283 0.402139
0.036505 0.141707 0.395886
-0.033199 0.084399 0.301977
-0.035031 0.107652 0.292565
-0.037271 0.100951 0.297241
-0.033328 0.112682 0.288985
-0.022803 0.143548 0.276267
0.008301 0.161556 0.289751
0.008327 0.162218 0.280704
0.024168 0.146530 0.288148
0.035420 0.103668 0.298292
0.037071 0.101685 0.296708
0.033714 0.082389 0.303659
-0.040080 0.079776 0.323551
-0.038661 0.106584 0.322087
-0.035158 0.119284 0.323378
-0.023201 0.154470 0.318606
-0.015955 0.167583 0.324942
0.011422 0.172074 0.325262
0.029726 0.142543 0.323078
0.037624 0.091932 0.323950
-0.033298 0.100910 0.253327
-0.030223 0.113118 0.252390
-0.028859 0.121150 0.257251
-0.024382 0.123043 0.247187
-0.012425 0.145848 0.245941
-0.007120 0.147898 0.249245
-0.009759 0.148090 0.245089
-0.003393 0.148634 0.249298
0.003065 0.149641 0.245250
0.026261 0.123087 0.250387
0.028854 0.119019 0.260253
0.028022 0.116325 0.250120
0.035519 0.097707 0.255467
0.040673 0.083169 0.257998
-0.044635 0.061698 0.288805
-0.019311 0.138808 0.272097
0.010393 0.151313 0.275209
0.020686 0.133498 0.270121
0.033533 0.104311 0.286229
0.036348 0.090767 0.281412
0.041114 0.072640 0.285851
-0.029569 0.115251 0.270104
-0.022518 0.137340 0.270845
-0.013132 0.145548 0.255890
0.022382 0.129556 0.260666
0.024178 0.131609 0.266261
0.035128 0.077267 0.272157
0.042789 0.050039 0.278778
-0.025797 0.163210 0.356160
-0.008651 0.175844 0.368597
0.012438 0.174625 0.368625
0.031551 0.156381 0.358216
0.034719 0.145476 0.355423
0.038358 0.109674 0.354820
-0.032370 0.132512 0.327576
-0.033363 0.126352 0.334227
-0.022656 0.159066 0.328580
-0.013656 0.171818 0.340010
-0.011544 0.172273 0.342948
0.026587 0.149536 0.338318
0.037017 0.096489 0.327643
0.039954 0.098315 0.330281
-0.039896 0.129489 0.346989
-0.032177 0.160203 0.360085
-0.000421 0.179352 0.384735
0.004135 0.174100 0.385440
0.032929 0.154713 0.349495
0.039397 0.138060 0.352106
0.038519 0.112297 0.345780
-0.038759 0.071897 0.329038
-0.040477 0.095403 0.336868
-0.032837 0.134331 0.335747
-0.029520 0.150342 0.336569
-0.025161 0.160566 0.339481
-0.025243 0.161409 0.353283
0.002876 0.174753 0.361771
0.002784 0.175820 0.345787
0.012902 0.174780 0.346012
0.025592 0.160024 0.354735
0.023232 0.163616 0.339781
0.030824 0.152510 0.346792
0.038205 0.079131 0.334663
-0.046367 0.052798 0.270074
0.008357 0.148600 0.251442
0.039187 0.093783 0.266786
0.041396 0.069251 0.272924
-0.045859 0.057795 0.244509
-0.044229 0.054347 0.242507
-0.035693 0.096449 0.238723
-0.035743 0.101471 0.243278
-0.032665 0.105040 0.236845
-0.031707 0.110726 0.242378
-0.028086 0.118545 0.243174
-0.022315 0.128661 0.241735
-0.017220 0.135098 0.241102
-0.005633 0.136989 0.225594
0.029073 0.118145 0.240274
0.034959 0.096918 0.247056
-0.002409 0.142033 0.235235
-0.013147 0.135585 0.236259
-0.022016 0.129477 0.245352
-0.027079 0.114304 0.241674
-0.029970 0.112935 0.245742
-0.043460 0.073332 0.253944
-0.044845 0.063131 0.253729
-0.038534 0.095982 0.236628
-0.030349 0.114417 0.226143
-0.010890 0.134438 0.228785
-0.005961 0.133709 0.219751
0.009882 0.132036 0.218348
0.014498 0.126529 0.215678
