-0.028638 0.006352 0.241186
-0.030611 -0.004627 0.237095
-0.046111 0.035889 0.231170
-0.040121 0.042500 0.237079
-0.037181 0.053235 0.239921
-0.044489 0.059045 0.231848
-0.041287 0.004989 0.232723
-0.033840 -0.006951 0.234801
-0.049018 0.026787 0.229657
-0.050957 0.024514 0.228208
-0.030753 -0.020567 0.231965
-0.045591 -0.010319 0.227543
-0.012930 -0.026558 0.235793
-0.019046 -0.041709 0.230475
-0.063012 -0.024256 0.213471
-0.046869 -0.029358 0.221793
-0.018039 -0.081969 0.216629
-0.011044 -0.073433 0.222901
-0.014280 -0.048218 0.230859
-0.042289 -0.064045 0.212184
-0.032705 -0.074468 0.213239
-0.020545 -0.061307 0.223383
-0.044783 -0.033890 0.221651
-0.047209 -0.036970 0.219090
-0.015172 -0.100839 0.205319
-0.023587 -0.093384 0.206132
-0.008973 -0.112836 0.196628
-0.016911 -0.124631 0.169043
-0.015657 -0.118881 0.184081
-0.028593 -0.102353 0.197433
-0.030086 -0.109975 0.191205
-0.042663 -0.101314 0.195299
-0.033271 -0.088211 0.206572
-0.029094 -0.118556 0.178024
-0.037674 -0.117653 0.182481
-0.030310 -0.139949 0.155915
-0.064914 -0.102453 0.182065
-0.053566 -0.106782 0.186561
-0.036003 -0.140612 0.161123
-0.067289 -0.092287 0.184739
-0.052249 -0.079133 0.200241
-0.068669 -0.031329 0.207915
-0.066204 -0.061762 0.197795
-0.056944 -0.117475 0.174728
-0.056848 -0.112171 0.179845
-0.048633 -0.140296 0.166608
-0.053242 -0.142368 0.164144
-0.035436 -0.164065 0.149201
-0.036802 -0.172247 0.148520
-0.040436 -0.153191 0.163018
-0.042355 -0.152355 0.163031
-0.039336 -0.186693 0.149048
-0.048747 -0.173762 0.156809
-0.042421 -0.192123 0.151773
-0.052421 -0.185414 0.155753
-0.050042 -0.192108 0.156003
-0.039800 -0.209905 0.151466
-0.040318 -0.218964 0.149691
-0.039494 -0.252475 0.144707
-0.042753 -0.256685 0.149200
-0.059341 -0.263094 0.150334
-0.073500 -0.329639 0.166150
-0.070017 -0.319516 0.161642
-0.072309 -0.323405 0.160135
-0.061002 -0.295667 0.152257
-0.062965 -0.310376 0.160034
-0.063770 -0.305159 0.154801
-0.072323 -0.323289 0.145860
-0.061292 -0.327822 0.137433
-0.053389 -0.320227 0.135722
-0.055240 -0.316630 0.134827
-0.041934 -0.322583 0.142652
-0.040165 -0.323804 0.145063
-0.043589 -0.300546 0.133163
-0.039919 -0.248931 0.142547
-0.042882 -0.254980 0.137672
-0.040610 -0.232094 0.138627
-0.037961 -0.217133 0.141816
-0.051059 -0.242118 0.127995
-0.045696 -0.211761 0.125590
-0.037331 -0.209782 0.142372
-0.037730 -0.198728 0.144642
-0.040879 -0.191986 0.129759
-0.038334 -0.175334 0.136457
-0.045610 -0.175192 0.124081
-0.035649 -0.159544 0.137880
-0.032583 -0.155185 0.145988
-0.045492 -0.164382 0.123216
-0.029864 -0.135349 0.140242
-0.025894 -0.126942 0.155175
-0.012190 -0.126735 0.161601
-0.007919 -0.126033 0.151300
-0.007399 -0.124641 0.140609
-0.010145 -0.119500 0.111016
-0.009021 -0.120285 0.108396
-0.028514 -0.123995 0.136757
-0.046632 -0.114675 0.115536
-0.033341 -0.113119 0.116925
-0.028912 -0.113960 0.096617
-0.007173 -0.131012 0.067555
-0.046704 -0.112006 0.113834
-0.031652 -0.107149 0.107290
-0.029823 -0.108467 0.109384
-0.014755 -0.132587 0.056436
-0.013224 -0.134667 0.051929
-0.030960 -0.132370 0.041465
-0.043358 -0.109152 0.082080
-0.034668 -0.126877 0.053977
-0.036881 -0.121732 0.063085
-0.030799 -0.135162 0.022180
-0.017700 -0.140008 0.022691
-0.011629 -0.142668 -0.008119
-0.010894 -0.143050 -0.003358
-0.051067 -0.108792 0.071211
-0.048939 -0.117400 0.052342
-0.044459 -0.126820 0.027260
-0.025829 -0.137979 -0.014657
-0.032449 -0.135698 -0.005242
-0.018661 -0.136996 -0.028398
-0.010425 -0.139307 -0.030115
-0.057167 -0.118709 0.015752
-0.045484 -0.126849 0.022442
-0.053614 -0.121708 0.013158
-0.064457 -0.105553 0.046660
-0.060361 -0.113976 0.027347
-0.055185 -0.103638 0.073395
-0.054460 -0.103956 0.074478
-0.054342 -0.096268 0.086489
-0.064400 -0.112391 0.014031
-0.069388 -0.105164 0.026066
-0.077493 -0.084790 0.043429
-0.064914 -0.090043 0.073520
-0.077053 -0.099051 0.006598
-0.075666 -0.101080 0.009356
-0.056621 -0.119816 -0.009275
-0.064275 -0.113097 0.009279
-0.071666 -0.107257 -0.010221
-0.059361 -0.113177 -0.034225
-0.054656 -0.116963 -0.033355
-0.057369 -0.114092 -0.036489
-0.066558 -0.110677 -0.019916
-0.068668 -0.109434 -0.015663
-0.065322 -0.106330 -0.039938
-0.081804 -0.078029 0.037880
-0.078951 -0.097632 -0.001728
-0.080975 -0.090063 -0.018725
-0.084154 -0.085781 -0.008766
-0.082880 -0.086748 -0.014871
-0.052888 -0.114013 -0.049577
-0.041928 -0.118177 -0.052825
-0.013440 -0.134114 -0.044916
-0.029707 -0.131290 -0.032971
-0.011782 -0.131094 -0.056264
-0.027300 -0.122527 -0.061369
-0.005743 -0.132692 -0.060824
-0.031640 -0.110801 -0.096673
-0.038250 -0.111112 -0.083655
-0.027269 -0.116496 -0.083945
-0.026503 -0.113156 -0.097649
-0.009394 -0.128045 -0.110466
-0.013087 -0.126035 -0.106051
-0.012310 -0.126460 -0.105586
-0.039345 -0.102728 -0.102418
-0.040659 -0.103122 -0.099217
-0.048980 -0.093522 -0.107304
-0.061062 -0.095577 -0.079081
-0.064817 -0.099058 -0.063747
-0.019605 -0.125240 -0.118225
-0.013705 -0.133183 -0.134865
-0.020847 -0.126945 -0.130812
-0.012252 -0.133521 -0.134824
-0.037668 -0.107109 -0.115344
-0.047347 -0.094351 -0.116935
-0.023451 -0.126118 -0.139661
-0.011158 -0.137710 -0.144707
-0.024430 -0.128291 -0.144366
-0.018727 -0.144293 -0.153083
-0.024912 -0.149534 -0.165639
-0.025975 -0.144837 -0.166677
-0.034887 -0.130542 -0.164774
-0.045595 -0.142892 -0.154328
-0.050198 -0.123286 -0.137881
-0.043412 -0.152192 -0.167661
-0.059793 -0.138022 -0.139050
-0.049761 -0.161188 -0.160698
-0.057604 -0.100443 -0.121899
-0.070347 -0.151178 -0.150009
-0.060313 -0.087661 -0.114717
-0.060589 -0.083455 -0.094658
-0.058023 -0.080555 -0.102101
-0.060426 -0.088465 -0.091977
-0.064332 -0.130124 -0.134468
-0.082089 -0.071765 -0.063139
-0.066056 -0.072844 -0.091243
-0.077093 -0.069981 -0.073757
-0.084595 -0.073400 -0.049211
-0.083075 -0.076351 -0.049999
-0.087268 -0.069904 -0.040947
-0.063784 -0.073691 -0.113262
-0.071268 -0.052435 -0.102386
-0.071912 -0.064141 -0.088926
-0.088323 -0.062716 -0.041532
-0.093711 -0.031023 -0.015034
-0.089366 -0.053800 -0.043804
-0.089686 -0.058537 -0.024623
-0.069881 -0.092084 -0.118696
-0.075425 -0.105822 -0.125519
-0.072374 -0.112816 -0.128281
-0.093328 -0.028182 -0.027115
-0.090727 -0.043576 -0.040899
-0.092077 -0.022469 -0.059361
-0.092232 -0.037525 -0.027354
-0.092119 -0.029592 -0.044738
-0.091206 -0.023899 -0.068260
-0.078209 -0.045608 -0.093451
-0.075350 -0.044445 -0.101868
-0.087242 -0.047730 -0.067606
-0.086481 -0.053702 0.015523
-0.089547 -0.047732 0.001426
-0.085981 -0.044363 0.024082
-0.088481 -0.066258 -0.003661
-0.083974 -0.068911 0.027181
-0.087621 -0.074626 -0.002906
-0.083710 -0.076748 0.025640
-0.085657 -0.058498 0.019181
-0.088052 0.006218 -0.036771
-0.090413 -0.008296 -0.050402
-0.092123 -0.017981 -0.024496
-0.091501 -0.014569 -0.038605
-0.092131 -0.018061 -0.025873
-0.080152 -0.062812 0.049446
-0.076818 -0.068036 0.060310
-0.079464 -0.074165 0.049505
-0.066285 -0.085133 0.075214
-0.070963 -0.078661 0.069290
-0.083966 0.006627 0.025748
-0.093020 -0.026620 -0.008884
-0.089708 -0.029305 0.010361
-0.086340 -0.022200 0.025573
-0.082321 -0.004698 0.039733
-0.091287 -0.014353 -0.012102
-0.082546 0.020916 0.014537
-0.087059 0.012609 -0.018134
-0.089293 -0.010531 0.002041
-0.086133 0.013199 -0.009299
-0.089518 -0.012305 0.003003
-0.078662 -0.043166 0.059811
-0.078901 -0.037546 0.061234
-0.076913 -0.047106 0.065383
-0.079765 -0.000797 0.050403
-0.082130 -0.020740 0.046811
-0.079338 0.004195 0.050555
-0.075024 -0.020407 0.078787
-0.075575 -0.022275 0.076960
-0.062083 -0.084963 0.085186
-0.053877 -0.082408 0.102478
-0.073006 -0.030433 0.088241
-0.065339 -0.058903 0.101891
-0.064720 -0.051344 0.106467
-0.060642 -0.067930 0.103736
-0.059349 -0.089005 0.105822
-0.053089 -0.099717 0.109189
-0.060457 -0.066195 0.110425
-0.067642 -0.031079 0.111785
-0.072137 -0.031413 0.090627
-0.063276 -0.044768 0.118861
-0.070968 -0.080621 0.115552
-0.065886 -0.038673 0.124141
-0.053227 -0.112683 0.113952
-0.072363 -0.075993 0.124631
-0.071642 -0.106582 0.114513
-0.063285 -0.135922 0.118211
-0.058254 -0.118903 0.115711
-0.053391 -0.130019 0.117066
-0.075253 -0.114115 0.130647
-0.064384 -0.143642 0.121693
-0.070673 -0.146881 0.130546
-0.048174 -0.171172 0.121489
-0.058690 -0.194574 0.124188
-0.063302 -0.172459 0.126116
-0.073768 -0.130984 0.139088
-0.070285 -0.129338 0.150261
-0.075007 -0.110834 0.143616
-0.064865 -0.146514 0.152682
-0.058126 -0.155801 0.155954
-0.064872 -0.125871 0.159758
-0.067506 -0.120960 0.158617
-0.078190 -0.102738 0.138684
-0.069979 -0.107855 0.173200
-0.061392 -0.180007 0.149617
-0.057869 -0.180371 0.153332
-0.072191 -0.105750 0.169989
-0.072325 -0.089382 0.179515
-0.076283 -0.079216 0.177151
-0.080078 -0.085264 0.150601
-0.082497 -0.068898 0.158404
-0.081379 -0.076214 0.153543
-0.077276 -0.072879 0.135474
-0.075981 -0.075871 0.132769
-0.074901 -0.065551 0.184500
-0.075597 -0.056379 0.184869
-0.082279 -0.059487 0.165830
-0.082370 -0.067708 0.165673
-0.071041 -0.054079 0.195324
-0.074647 -0.045183 0.189647
-0.077187 -0.061899 0.136805
-0.071629 -0.047630 0.130066
-0.080718 -0.052292 0.146130
-0.079833 -0.034914 0.159945
-0.081442 -0.035695 0.169889
-0.072861 -0.027794 0.138510
-0.070779 -0.023109 0.204696
-0.070665 -0.010231 0.203825
-0.062883 -0.005574 0.216916
-0.061952 0.007227 0.217038
-0.064389 0.017916 0.211075
-0.057692 0.049088 0.216802
-0.077441 -0.021457 0.156392
-0.079175 -0.010521 0.173128
-0.076772 -0.022533 0.151415
-0.077439 -0.003279 0.180316
-0.077503 0.003246 0.173172
-0.076977 0.010384 0.168991
-0.068510 -0.006088 0.138331
-0.069888 -0.024320 0.134946
-0.069382 0.011371 0.145894
-0.071433 0.017251 0.152026
-0.055479 0.059137 0.218005
-0.059332 0.063362 0.208348
-0.067442 0.045967 0.188998
-0.067551 0.049146 0.184979
-0.064224 0.053983 0.199756
-0.066981 0.049086 0.188455
-0.064242 0.015936 0.128279
-0.064528 0.013982 0.125836
-0.066540 0.018182 0.105624
-0.066415 0.004899 0.109055
-0.067644 0.021258 0.095914
-0.071950 -0.021516 0.092978
-0.068163 0.025459 0.091879
-0.070779 -0.009496 0.093622
-0.073906 0.013964 0.071037
-0.071571 0.027077 0.076384
-0.069793 0.013783 0.089073
-0.075120 0.006909 0.068343
-0.072017 0.006684 0.081983
-0.064335 0.053009 0.146432
-0.063872 0.047995 0.144727
-0.062576 0.061041 0.144323
-0.062685 0.054328 0.120904
-0.065333 0.037626 0.108627
-0.062398 0.058096 0.120797
-0.066481 0.031412 0.102551
-0.058623 0.082836 0.137629
-0.062559 0.084389 0.171763
-0.069882 0.052351 0.165000
-0.064379 0.069931 0.178828
-0.069447 0.050866 0.169962
-0.066308 0.063435 0.157955
-0.067459 0.057633 0.156997
-0.059771 0.083406 0.144733
-0.076718 0.028396 0.049566
-0.069533 0.047874 0.045146
-0.068228 0.042231 0.063611
-0.061404 0.065800 0.048772
-0.066274 0.052124 0.052766
-0.059510 0.057243 0.095300
-0.058259 0.059899 0.093178
-0.056532 0.077278 0.113777
-0.059757 0.072250 0.122360
-0.060717 0.058260 0.103482
-0.056408 0.064934 0.091270
-0.054807 0.072074 0.084728
-0.057329 0.066031 0.079698
-0.057092 0.071555 0.065573
-0.058398 0.068895 0.061581
-0.066916 0.068001 0.001513
-0.062108 0.076304 0.012250
-0.066475 0.061578 0.025472
-0.063392 0.073163 0.012340
-0.066519 0.071353 -0.006127
-0.072399 0.044284 0.034829
-0.073680 0.051536 -0.002374
-0.082316 0.031186 -0.013073
-0.075213 0.051135 -0.016746
-0.072636 0.050250 0.013461
-0.075955 0.045101 -0.001030
-0.075758 0.044937 0.001655
-0.046116 0.089596 0.055567
-0.047137 0.088698 0.069109
-0.041220 0.094784 0.058003
-0.056845 0.078517 0.040542
-0.047367 0.089279 0.032456
-0.041646 0.094682 0.036636
-0.045638 0.096660 0.096727
-0.044254 0.102112 0.102917
-0.047779 0.097725 0.110556
-0.034903 0.112020 0.075744
-0.045707 0.094046 0.090611
-0.037079 0.111518 0.088329
-0.073961 0.054039 -0.027996
-0.075026 0.049812 -0.057182
-0.072654 0.056508 -0.046587
-0.077225 0.044157 -0.055884
-0.081127 0.034633 -0.043407
-0.071099 0.061270 -0.032249
-0.087158 0.006043 -0.057582
-0.081663 0.027238 -0.069646
-0.087467 0.002660 -0.065396
-0.090175 -0.007407 -0.057988
-0.083193 0.024091 -0.055589
-0.086391 0.008683 -0.060492
-0.042702 0.115269 0.122378
-0.042980 0.110148 0.113980
-0.042156 0.109221 0.108519
-0.047107 0.110070 0.132453
-0.088251 -0.005801 -0.078993
-0.081474 0.025023 -0.078665
-0.084836 0.000455 -0.099808
-0.084145 0.007639 -0.090632
-0.085531 0.005887 -0.080405
-0.086548 -0.008242 -0.093436
-0.083653 -0.027134 -0.088481
-0.076373 -0.038599 -0.102859
-0.078863 -0.034373 -0.098167
-0.047576 0.110137 0.141222
-0.050374 0.104350 0.139627
-0.043982 0.117432 0.159585
-0.059966 0.087724 0.153160
-0.078838 -0.029061 -0.111619
-0.077116 -0.039306 -0.109923
-0.071378 -0.053994 -0.114886
-0.056200 0.097369 0.169738
-0.048358 0.110534 0.169351
-0.060397 0.078811 0.189246
-0.054273 0.099779 0.180464
-0.047148 0.104669 0.204495
-0.048501 0.103897 0.198772
-0.052968 0.085500 0.208956
-0.054709 0.068787 0.214629
-0.044632 0.080721 0.226160
-0.046356 0.097726 0.214876
-0.041117 0.088476 0.231659
-0.039165 0.088478 0.237043
-0.038105 0.103420 0.235338
-0.045306 0.113232 0.193581
-0.035359 0.128912 0.214514
-0.034503 0.130687 0.212905
-0.040816 0.122573 0.180819
-0.030978 0.138356 0.192864
-0.027464 0.156039 0.214306
-0.027326 0.153750 0.209083
-0.026301 0.155040 0.207865
-0.026956 0.144202 0.190919
-0.026607 0.140557 0.165408
-0.035070 0.131656 0.138113
-0.000747 0.170781 0.188504
-0.015655 0.146614 0.153364
-0.019518 0.142675 0.138589
-0.033965 0.125879 0.114150
-0.026913 0.133455 0.121080
-0.007077 0.152737 0.161280
0.002186 0.164153 0.180978
-0.019214 0.137772 0.117109
-0.023062 0.126693 0.095379
-0.017688 0.125921 0.084370
-0.031130 0.113877 0.072164
-0.005507 0.149347 0.141491
-0.011548 0.137021 0.103710
-0.004024 0.142622 0.114282
0.003398 0.148981 0.137091
0.005223 0.143760 0.118368
0.005875 0.149840 0.145391
0.011927 0.139148 0.109661
0.000462 0.133637 0.087309
0.020973 0.141743 0.139466
0.015880 0.145166 0.137285
-0.012268 0.124877 0.054776
-0.018523 0.119332 0.056719
-0.021162 0.117866 0.064251
-0.018382 0.118365 0.048932
0.030490 0.127007 0.109709
0.029769 0.130702 0.119228
0.015427 0.143543 0.125638
0.019072 0.128708 0.094289
0.037024 0.130155 0.149961
0.034255 0.132302 0.143815
0.023056 0.144385 0.167661
0.031090 0.136516 0.164490
0.029952 0.138602 0.167778
0.041799 0.113688 0.115330
0.053079 0.095452 0.131835
0.047107 0.107145 0.126944
0.047847 0.104905 0.126057
0.039170 0.127420 0.146660
0.042449 0.121261 0.140745
0.044763 0.115705 0.185848
0.035979 0.130647 0.180864
0.037646 0.126215 0.194446
0.033150 0.133667 0.195455
0.047471 0.112036 0.169153
0.051285 0.105009 0.181353
0.040902 0.122987 0.170503
0.058827 0.090444 0.156061
0.053885 0.097981 0.151323
0.046674 0.113385 0.162291
0.051561 0.095761 0.198748
0.052644 0.090081 0.204452
0.055783 0.097034 0.178776
0.050543 0.104131 0.188323
0.058899 0.084233 0.186606
0.048825 0.094950 0.211688
0.055152 0.060962 0.217975
0.063862 0.080752 0.167760
0.063845 0.067359 0.185902
0.064705 0.061839 0.187486
0.062926 0.078804 0.176752
0.067014 0.059886 0.157349
0.068029 0.057904 0.161012
0.065336 0.067757 0.157907
0.066013 0.035466 0.203864
0.063578 0.041998 0.206762
0.070584 0.035625 0.181195
0.073579 0.025411 0.174121
0.069092 0.025825 0.200486
0.071283 0.035879 0.176751
0.065744 0.017870 0.208811
0.063709 0.009964 0.213618
0.070853 0.007619 0.201703
0.068618 0.003679 0.205992
0.070577 -0.013818 0.204345
0.078931 -0.018739 0.185150
0.070502 -0.026528 0.205636
0.076913 0.008569 0.171317
0.074089 0.013560 0.183325
0.077322 -0.005431 0.183297
0.075812 -0.043631 0.187337
0.074429 -0.044122 0.190569
0.081273 -0.050159 0.176062
0.072323 -0.062708 0.189470
0.072482 -0.072537 0.186636
0.073477 -0.073574 0.184463
0.080106 -0.077565 0.170642
0.073095 -0.101682 0.170739
0.078474 -0.093633 0.159084
0.082914 -0.067147 0.149011
0.082115 -0.044258 0.166052
0.082406 -0.065878 0.164357
0.082244 -0.073598 0.144699
0.077662 -0.100336 0.153737
0.075351 -0.079885 0.131169
0.074710 -0.079625 0.130015
0.081893 -0.054154 0.151922
0.081024 -0.046450 0.154816
0.079632 -0.050619 0.144426
0.075409 -0.045815 0.137697
0.077263 -0.020049 0.155804
0.076744 -0.005604 0.159157
0.078044 -0.009174 0.166156
0.068804 -0.033913 0.130143
0.070147 0.004366 0.144630
0.074587 -0.004814 0.149484
0.066250 -0.008084 0.134175
0.068028 -0.010041 0.136368
0.058672 0.082595 0.140231
0.066737 0.035349 0.148215
0.066215 0.048376 0.149310
0.065291 -0.016826 0.123539
0.065000 -0.012799 0.125701
0.064712 -0.006232 0.127423
0.066648 0.018867 0.104511
0.065444 0.016744 0.116538
0.062414 0.047971 0.128131
0.060024 0.068986 0.134867
0.062789 0.045060 0.126798
0.063687 0.042659 0.120239
0.059719 0.070808 0.136347
0.070515 -0.011955 0.095797
0.070602 -0.025927 0.100885
0.072282 -0.025411 0.092963
0.069919 -0.005781 0.096110
0.074445 0.024014 0.064959
0.071683 0.017740 0.079357
0.078051 0.019215 0.050965
0.073363 -0.017836 0.085160
0.074517 -0.004131 0.075047
0.062272 0.061160 0.116721
0.060044 0.073782 0.126488
0.059111 0.066047 0.108258
0.050933 0.086847 0.100340
0.057727 0.085013 0.133397
0.051503 0.090768 0.112906
0.048422 0.095416 0.108231
0.050523 0.091284 0.109053
0.059410 0.062226 0.072086
0.057235 0.072383 0.061856
0.053692 0.075403 0.084992
0.055000 0.070607 0.087279
0.060058 0.057611 0.079812
0.067847 0.041369 0.067366
0.060592 0.067201 0.049977
0.064955 0.049211 0.065592
0.075811 0.028058 0.054868
0.068387 0.039948 0.067610
0.042622 0.093942 0.070251
0.035180 0.110618 0.073208
0.046893 0.091469 0.090421
0.052210 0.083126 0.051526
0.045479 0.090095 0.042149
0.043249 0.092460 0.043457
0.023558 0.121674 0.082243
0.020585 0.122009 0.077553
0.031664 0.117866 0.085846
0.063500 0.068604 0.026077
0.064936 0.069364 0.012496
0.060482 0.073784 0.032934
0.073059 0.041865 0.037422
0.067315 0.059463 0.025710
0.064279 0.075034 -0.000549
0.048676 0.087810 0.033440
0.054645 0.083482 0.018174
0.055955 0.082344 0.016388
0.018321 0.119376 0.055679
0.026771 0.108958 0.039362
0.024008 0.114163 0.057393
0.008032 0.128776 0.071976
0.037067 0.102733 0.005769
0.036482 0.103068 0.008158
0.045901 0.095050 -0.005771
0.034315 0.103183 0.027181
0.029547 0.109938 0.003896
0.006058 0.124786 0.044603
0.002292 0.127629 0.056257
-0.000697 0.125431 0.036255
0.022370 0.115249 0.014220
0.020889 0.116292 0.017145
0.012117 0.123894 -0.002331
-0.012959 0.122825 0.011324
0.006418 0.125774 -0.004637
-0.006427 0.124788 0.014331
0.004872 0.127623 -0.029116
-0.006789 0.126841 -0.025617
0.014531 0.123820 -0.020321
0.019529 0.119086 -0.011557
0.024313 0.115362 -0.014221
0.008470 0.128171 -0.047939
-0.018408 0.119686 -0.006502
-0.020834 0.117483 -0.002697
-0.015843 0.119315 0.034378
-0.029423 0.108516 0.018802
-0.037484 0.103097 -0.001563
-0.035779 0.100925 0.034814
-0.041805 0.097812 0.007079
-0.052947 0.086924 0.003769
-0.010718 0.125231 -0.018361
-0.016822 0.123685 -0.044054
-0.031677 0.109146 -0.011644
-0.039760 0.104393 -0.042683
-0.044182 0.099299 -0.034693
-0.044494 0.098370 -0.027139
-0.045744 0.095963 -0.013002
-0.027727 0.115369 -0.047511
-0.022873 0.119063 -0.046205
-0.052136 0.091284 -0.037992
-0.044480 0.099939 -0.057828
-0.054200 0.089075 -0.044128
-0.057892 0.084978 -0.047474
-0.058858 0.079474 -0.066733
-0.068643 0.059906 -0.070938
-0.070778 0.057551 -0.061745
-0.066801 0.063002 -0.073246
-0.071612 0.058169 -0.050040
-0.020665 0.122094 -0.067951
-0.027330 0.117222 -0.077950
-0.041446 0.103336 -0.089519
-0.030201 0.115653 -0.103533
-0.011981 0.128003 -0.058351
0.000395 0.129829 -0.108959
-0.014683 0.126291 -0.078981
-0.022617 0.121248 -0.100569
-0.009152 0.128452 -0.076408
-0.068388 0.053700 -0.117420
-0.056916 0.081740 -0.075687
-0.067481 0.055965 -0.113770
-0.064631 0.067083 -0.073967
-0.065642 0.061559 -0.099298
-0.078579 0.028872 -0.095797
-0.068851 0.051933 -0.120633
-0.076504 0.026501 -0.114594
-0.073603 0.043680 -0.102923
-0.080519 0.014949 -0.108109
-0.042183 0.097675 -0.104927
-0.045844 0.093750 -0.097376
-0.049867 0.093143 -0.077600
-0.064296 0.062058 -0.112918
-0.046502 0.087612 -0.115446
-0.049109 0.087014 -0.103459
-0.053268 0.077338 -0.116549
-0.058678 0.069662 -0.115434
-0.012978 0.126303 -0.121800
-0.015536 0.124681 -0.124152
-0.032261 0.112592 -0.132231
-0.038310 0.099822 -0.120673
-0.020874 0.121038 -0.139979
-0.016147 0.123287 -0.143577
-0.007208 0.128169 -0.127577
0.005069 0.128259 -0.129698
0.010295 0.128367 -0.087618
-0.000353 0.126062 -0.164112
0.009164 0.128035 -0.128109
0.012710 0.126704 -0.116355
0.012417 0.127272 -0.095920
0.012190 0.125798 -0.139246
0.015277 0.124843 -0.123450
0.019754 0.122906 -0.072215
0.018304 0.123992 -0.070864
0.017085 0.124691 -0.062465
0.022581 0.119816 -0.052086
0.022791 0.119142 -0.046462
0.047857 0.094886 -0.025981
0.038629 0.104381 -0.028656
0.036972 0.105162 -0.017739
0.037346 0.107801 -0.076486
0.050906 0.092958 -0.069638
0.041665 0.103062 -0.085397
0.044476 0.099961 -0.060768
0.042957 0.101647 -0.061900
0.057109 0.085806 -0.039466
0.030736 0.116215 -0.155681
0.027243 0.117963 -0.135768
0.043564 0.097955 -0.096544
0.041961 0.094715 -0.115247
0.046105 0.095768 -0.089648
0.033116 0.113711 -0.152540
0.036861 0.102367 -0.119784
0.028839 0.116811 -0.162489
0.016027 0.121609 -0.170940
0.040685 0.099233 -0.143570
0.041234 0.095635 -0.128601
0.048284 0.089676 -0.161797
0.031699 0.115386 -0.161932
0.046119 0.087168 -0.119160
0.050153 0.089794 -0.087456
0.049885 0.091552 -0.082415
0.049994 0.090704 -0.084960
0.061154 0.070037 -0.100559
0.047195 0.087059 -0.130494
0.055010 0.077778 -0.138759
0.053866 0.080523 -0.151734
0.070297 0.057859 -0.151183
0.054209 0.076724 -0.130186
0.067226 0.061651 -0.147838
0.048624 0.093411 -0.189244
0.044105 0.095079 -0.172564
0.071788 0.059999 -0.171912
0.063486 0.071586 -0.178201
0.070011 0.065685 -0.191833
0.065408 0.072145 -0.193430
0.039543 0.100124 -0.200904
0.015349 0.113335 -0.202257
0.067149 0.069359 -0.201326
0.049698 0.091774 -0.208396
0.048463 0.094772 -0.198853
0.079047 0.048619 -0.181982
0.080844 0.045548 -0.185284
0.010221 0.113019 -0.208724
0.012616 0.113977 -0.202931
0.081356 0.037987 -0.164205
0.075139 0.046945 -0.149199
0.070113 0.051839 -0.132286
0.010616 0.104252 -0.228402
0.027844 0.102375 -0.218498
0.078570 0.020343 -0.132365
0.076502 0.041372 -0.142668
0.067160 0.065439 -0.212222
0.063882 0.068269 -0.217801
0.085654 0.006278 -0.145064
0.082182 0.017265 -0.141990
0.081047 0.036377 -0.157650
0.085413 0.031484 -0.176062
0.051105 0.080840 -0.234541
0.048430 0.081733 -0.242539
0.029101 0.093384 -0.235144
0.045788 0.092498 -0.220504
0.079603 0.037002 -0.217512
0.081924 0.041184 -0.190256
0.080789 0.044975 -0.190636
0.049140 0.079939 -0.243385
0.050011 0.077795 -0.242981
0.062439 0.049066 -0.236588
0.076263 0.038136 -0.224578
0.085263 0.029269 -0.191079
0.089852 0.004764 -0.211185
0.082282 0.031993 -0.208039
0.091212 0.004516 -0.167304
0.088894 0.014842 -0.190453
0.091786 -0.000046 -0.193745
0.060408 0.033036 -0.247009
0.074460 0.018007 -0.233248
0.068239 0.018500 -0.242119
0.091347 -0.002331 -0.212261
0.046219 0.059402 -0.252941
0.052899 0.057985 -0.246017
0.033294 0.083473 -0.248604
0.051946 0.035961 -0.252258
0.050310 0.048204 -0.250473
0.043962 0.048064 -0.255982
0.088355 -0.000585 -0.216278
0.066474 -0.001771 -0.247507
0.065131 0.006133 -0.248329
0.036947 0.046465 -0.262106
0.010916 0.067283 -0.275865
0.025431 0.043714 -0.270178
0.021134 0.071472 -0.268372
0.027393 0.075705 -0.260750
0.019075 0.084779 -0.253965
0.012219 0.093919 -0.244853
0.010806 0.098036 -0.238753
-0.002646 0.092902 -0.249436
-0.012011 0.094037 -0.244724
-0.002210 0.104023 -0.231818
-0.015582 0.080956 -0.261356
-0.019538 0.087975 -0.249221
-0.014367 0.067859 -0.274034
-0.016237 0.106778 -0.219811
-0.013461 0.111377 -0.210868
-0.007294 0.115360 -0.203875
-0.032060 0.044974 -0.265759
-0.030221 0.065110 -0.266656
-0.018321 0.054876 -0.275617
-0.031882 0.076526 -0.257469
-0.032587 0.076589 -0.257127
-0.021690 0.028915 -0.267351
-0.044097 0.091357 -0.225082
-0.042044 0.093985 -0.220535
-0.024759 0.099962 -0.225762
-0.048757 0.068725 -0.247412
-0.050206 0.063000 -0.247504
-0.034908 0.067344 -0.262900
-0.042759 0.042659 -0.257286
-0.053585 0.081166 -0.224134
-0.048159 0.086119 -0.232188
-0.061815 0.062190 -0.232223
-0.059776 0.053823 -0.238434
-0.042370 0.097139 -0.208608
-0.054625 0.083491 -0.213907
-0.065498 0.066131 -0.217070
-0.072856 0.058058 -0.209230
-0.052273 0.087796 -0.211005
-0.074170 0.060636 -0.196897
-0.074342 0.036406 -0.227981
-0.075766 0.057375 -0.198996
-0.078278 0.042121 -0.214344
-0.029524 0.108255 -0.198452
-0.030879 0.109777 -0.191715
-0.010146 0.121356 -0.180888
-0.015134 0.118455 -0.185531
-0.015626 0.122048 -0.169310
-0.007696 0.122813 -0.177315
-0.026584 0.117406 -0.170853
-0.042761 0.098809 -0.182026
-0.037079 0.105775 -0.182783
-0.031715 0.112970 -0.171112
-0.043127 0.096601 -0.170279
-0.058369 0.079228 -0.182675
-0.070669 0.065469 -0.194939
-0.040329 0.100273 -0.145983
-0.038019 0.104976 -0.150498
-0.042091 0.093084 -0.122384
-0.050588 0.084712 -0.151259
-0.070246 0.060246 -0.160653
-0.054519 0.079513 -0.149992
-0.064103 0.070312 -0.175164
-0.064967 0.070070 -0.180470
-0.061127 0.065630 -0.128944
-0.062255 0.066008 -0.136284
-0.057410 0.071896 -0.130669
-0.079686 0.049019 -0.188651
-0.078461 0.051363 -0.194534
-0.079877 0.047718 -0.191633
-0.069534 0.053243 -0.132610
-0.079272 0.043467 -0.166151
-0.081796 0.011092 -0.135527
-0.070121 0.049576 -0.128175
-0.080554 0.013913 -0.133371
-0.081262 0.010371 -0.125195
-0.082854 0.005159 -0.133935
-0.082967 -0.001283 -0.128690
-0.084838 0.022280 -0.156077
-0.083115 0.027279 -0.154298
-0.085408 0.013530 -0.150292
-0.082969 0.018501 -0.145824
-0.083443 -0.022095 -0.128269
-0.090842 -0.027579 -0.141244
-0.089820 -0.004595 -0.151567
-0.089321 -0.015136 -0.142106
-0.090316 -0.047212 -0.138623
-0.087637 -0.043618 -0.133426
-0.089885 -0.057410 -0.136972
-0.094190 -0.027923 -0.185918
-0.093468 -0.018962 -0.157706
-0.092308 -0.005388 -0.169022
-0.083908 -0.072810 -0.125799
-0.087641 -0.063565 -0.131774
-0.084543 -0.078732 -0.128925
-0.080027 -0.088590 -0.122091
-0.080252 -0.106716 -0.132760
-0.086147 -0.103030 -0.142944
-0.094601 -0.052357 -0.170630
-0.094696 -0.046987 -0.181191
-0.090416 -0.092191 -0.156369
-0.093968 -0.066458 -0.147832
-0.094100 -0.063670 -0.151480
-0.092580 -0.070161 -0.169162
-0.078506 -0.127755 -0.145705
-0.084331 -0.118590 -0.153586
-0.088031 -0.100004 -0.167510
-0.082739 -0.127305 -0.162700
-0.074762 -0.136482 -0.142915
-0.084852 -0.085986 -0.193555
-0.084243 -0.085917 -0.194779
-0.080563 -0.141893 -0.165265
-0.076909 -0.078892 -0.214605
-0.082154 -0.058230 -0.215107
-0.083770 -0.073275 -0.200590
-0.087825 -0.055963 -0.201565
-0.091577 -0.041026 -0.199208
-0.082213 -0.128932 -0.169233
-0.083589 -0.119220 -0.183455
-0.081365 -0.135795 -0.168052
-0.083750 -0.096414 -0.191312
-0.074535 -0.098452 -0.208870
-0.083293 -0.111994 -0.187740
-0.081898 -0.105606 -0.191452
-0.072066 -0.161931 -0.162252
-0.067479 -0.167019 -0.162752
-0.079487 -0.139521 -0.187792
-0.063436 -0.170097 -0.163306
-0.053031 -0.163687 -0.159702
-0.075434 -0.167395 -0.177178
-0.058363 -0.174903 -0.164886
-0.048133 -0.181915 -0.175745
-0.045559 -0.183905 -0.185859
-0.045447 -0.193403 -0.192722
-0.052358 -0.186739 -0.173825
-0.045660 -0.212752 -0.196702
-0.045427 -0.226464 -0.194255
-0.048156 -0.247420 -0.200599
-0.048287 -0.257867 -0.199438
-0.052002 -0.219801 -0.184360
-0.055220 -0.220580 -0.184774
-0.058625 -0.214355 -0.186194
-0.058303 -0.258067 -0.183646
-0.048411 -0.290944 -0.195068
-0.049088 -0.308001 -0.193469
-0.048944 -0.317527 -0.193483
-0.054428 -0.292332 -0.180200
-0.050554 -0.304130 -0.181116
-0.058451 -0.323221 -0.165065
-0.066104 -0.286601 -0.184053
-0.069245 -0.294109 -0.183166
-0.062868 -0.324380 -0.165509
-0.073506 -0.313937 -0.177079
-0.074645 -0.296947 -0.193226
-0.049229 -0.323502 -0.194333
-0.054020 -0.322705 -0.199885
-0.055056 -0.316524 -0.201454
-0.074781 -0.311931 -0.202073
-0.050195 -0.281561 -0.207300
-0.060866 -0.296049 -0.220266
-0.064032 -0.295053 -0.218134
-0.056770 -0.245370 -0.213431
-0.050105 -0.250885 -0.205827
-0.053608 -0.209019 -0.214846
-0.060646 -0.251842 -0.213966
-0.067025 -0.258854 -0.213824
-0.063628 -0.277258 -0.215744
-0.073457 -0.288431 -0.215328
-0.066724 -0.277212 -0.215013
-0.069245 -0.268575 -0.211281
-0.072906 -0.277637 -0.209638
-0.066979 -0.268913 -0.185738
-0.068166 -0.233620 -0.190922
-0.074467 -0.246523 -0.202330
-0.073299 -0.229762 -0.198897
-0.068755 -0.260531 -0.212242
-0.070330 -0.201809 -0.194851
-0.065145 -0.203049 -0.190040
-0.073622 -0.208127 -0.208934
-0.068610 -0.213482 -0.218535
-0.066909 -0.196306 -0.222711
-0.050409 -0.171399 -0.202744
-0.065713 -0.173676 -0.214531
-0.059469 -0.167525 -0.213938
-0.046820 -0.152284 -0.192448
-0.046908 -0.151046 -0.193516
-0.047714 -0.146647 -0.198805
-0.037402 -0.133675 -0.183360
-0.050459 -0.127940 -0.206778
-0.048020 -0.129540 -0.203444
-0.035616 -0.130150 -0.179392
-0.033678 -0.130005 -0.170642
-0.039871 -0.115634 -0.204529
-0.026530 -0.127570 -0.184864
-0.023428 -0.123459 -0.195919
-0.025339 -0.118706 -0.198355
-0.045517 -0.105689 -0.214886
-0.052148 -0.108097 -0.217270
-0.030799 -0.096284 -0.218267
-0.059419 -0.110696 -0.216041
-0.056376 -0.134751 -0.209493
-0.044500 -0.087672 -0.229358
-0.064715 -0.101645 -0.217045
-0.062409 -0.140831 -0.208450
-0.059164 -0.086803 -0.228944
-0.058843 -0.092262 -0.225909
-0.048605 -0.080424 -0.235145
-0.067718 -0.064067 -0.233633
-0.068337 -0.071177 -0.229457
-0.076755 -0.145297 -0.194304
-0.075996 -0.153182 -0.195431
-0.066737 -0.063320 -0.234908
-0.064550 -0.183028 -0.177963
-0.073722 -0.190960 -0.194604
-0.066991 -0.052786 -0.238861
-0.078854 -0.047353 -0.227972
-0.085303 -0.044399 -0.213302
-0.084274 -0.036932 -0.218594
-0.088555 -0.020993 -0.213796
-0.087658 -0.027969 -0.213512
-0.092797 -0.010955 -0.188608
-0.093111 -0.014960 -0.179033
-0.092449 -0.007040 -0.172670
-0.091270 0.004290 -0.166246
-0.089617 0.010726 -0.197269
-0.090997 0.003425 -0.201846
-0.085544 0.022934 -0.203302
-0.086443 0.025578 -0.190303
-0.085005 0.033767 -0.182858
-0.081733 0.017075 -0.222932
-0.072364 0.020862 -0.235791
-0.066623 0.039613 -0.236161
-0.062630 0.029908 -0.245685
-0.060227 0.024465 -0.251133
-0.080277 -0.012620 -0.228460
-0.072522 -0.022850 -0.239760
-0.076316 -0.010959 -0.234133
-0.085780 -0.002412 -0.220163
-0.067723 -0.001740 -0.245675
-0.040889 0.019816 -0.260927
-0.054467 0.021266 -0.255133
-0.056655 0.007724 -0.253749
-0.035779 0.000817 -0.263867
-0.022024 0.026276 -0.266889
-0.035408 0.030826 -0.262403
-0.049207 -0.022819 -0.257572
-0.061938 -0.027513 -0.247013
-0.036679 -0.010012 -0.264095
-0.042548 -0.003246 -0.260329
-0.055213 -0.035432 -0.251196
-0.076858 -0.040915 -0.232996
-0.028415 0.002582 -0.266232
-0.047475 -0.043681 -0.255342
-0.032417 -0.041732 -0.256749
-0.019474 -0.025933 -0.263715
-0.019169 -0.044169 -0.250537
-0.012079 -0.013058 -0.266372
-0.006474 -0.046426 -0.247370
-0.005598 -0.044693 -0.247992
-0.013238 -0.010908 -0.267664
-0.013650 0.001012 -0.267823
-0.005575 0.024067 -0.266521
0.002393 0.029502 -0.266121
-0.006699 0.035092 -0.278557
-0.018095 -0.056463 -0.241989
-0.015048 -0.076018 -0.238451
-0.024183 -0.074561 -0.232755
-0.006640 -0.076700 -0.241155
-0.001644 -0.089253 -0.236410
-0.018873 -0.093075 -0.226463
-0.017775 -0.105264 -0.218855
-0.005175 -0.108078 -0.224814
-0.000536 -0.120975 -0.218160
-0.000569 -0.125449 -0.214383
-0.016956 -0.132184 -0.194418
-0.003995 -0.139929 -0.186296
-0.007224 -0.141272 -0.179057
-0.009763 -0.145357 -0.165614
-0.017759 -0.163369 -0.172296
0.029805 0.225301 0.288545
0.025972 0.222674 0.278825
0.027902 0.235533 0.282733
0.010852 0.248165 0.272090
-0.002938 0.255757 0.276211
0.020981 0.257037 0.285958
0.012195 0.263989 0.287525
0.027799 0.254878 0.294238
0.023568 0.267810 0.311922
0.006898 0.272391 0.318127
0.016588 0.272471 0.317450
0.013241 0.272763 0.317547
0.029374 0.263923 0.321120
0.034966 0.257961 0.341887
0.041350 0.239568 0.331734
0.010526 0.271574 0.339240
0.007622 0.268009 0.350113
0.014295 0.263858 0.357181
0.012531 0.253279 0.369069
0.013187 0.247333 0.377586
0.013927 0.244484 0.382026
0.003216 0.232819 0.415737
0.001092 0.219954 0.436128
0.002470 0.216165 0.441245
0.003878 0.207234 0.447143
0.013639 0.214034 0.432391
0.012130 0.197804 0.444099
0.008032 0.186807 0.441320
0.015852 0.193755 0.437989
0.015359 0.207951 0.429725
0.017876 0.191875 0.433693
0.021189 0.187984 0.423980
0.019914 0.191210 0.425671
0.015095 0.210257 0.424809
0.018347 0.201438 0.410741
0.018786 0.207720 0.405581
0.013886 0.228763 0.403403
0.021632 0.210182 0.400079
0.021329 0.218771 0.397466
0.020449 0.226092 0.391382
0.020776 0.234219 0.380378
0.027852 0.206155 0.390190
0.025542 0.183421 0.390622
0.014906 0.173475 0.414962
0.001897 0.167768 0.434947
0.005024 0.157928 0.373284
0.026520 0.177321 0.379200
0.030121 0.193612 0.379348
0.018246 0.156342 0.336794
0.018132 0.157612 0.312734
0.016109 0.153142 0.325254
0.023900 0.163634 0.350569
0.030724 0.164795 0.326149
0.031911 0.178261 0.302454
0.033757 0.172243 0.330431
0.032906 0.170029 0.313647
0.038122 0.186410 0.311935
0.036166 0.194317 0.306319
0.029311 0.206436 0.291179
0.036260 0.205895 0.311161
0.036426 0.214086 0.311993
0.036388 0.223610 0.308265
0.037494 0.226998 0.313275
0.038396 0.220273 0.325318
0.037276 0.195813 0.330761
0.034451 0.188005 0.346137
0.030887 0.185431 0.370633
0.030162 0.205083 0.373754
0.032150 0.203021 0.363703
0.034540 0.215195 0.353142
0.040268 0.249446 0.346075
0.038840 0.226322 0.352970
0.031910 0.241519 0.366586
0.031284 0.245645 0.365874
0.033310 0.242269 0.364717
0.036830 0.250391 0.353457
0.026361 0.259515 0.354846
-0.029283 0.235259 0.285188
-0.025295 0.228648 0.278801
-0.022348 0.233734 0.274212
-0.005602 0.238622 0.262743
-0.021970 0.236158 0.274561
-0.007900 0.243196 0.268342
-0.021609 0.253368 0.282639
-0.005309 0.259463 0.280080
-0.000044 0.268356 0.301965
-0.024877 0.267241 0.312201
-0.020611 0.265791 0.300292
-0.027479 0.262075 0.306550
-0.030935 0.263227 0.326767
-0.034293 0.260064 0.343640
-0.001237 0.270793 0.338905
-0.009026 0.269795 0.346033
-0.006645 0.264224 0.357576
-0.018168 0.265317 0.354280
-0.006796 0.253163 0.375495
-0.008490 0.248848 0.384381
-0.020625 0.256545 0.362566
-0.020495 0.242894 0.372997
-0.007673 0.227555 0.419716
-0.002869 0.217465 0.439480
-0.000852 0.204354 0.447791
-0.001019 0.187605 0.442362
-0.013764 0.213291 0.435364
-0.016857 0.197428 0.431984
-0.018494 0.189052 0.435245
-0.020140 0.189661 0.428075
-0.019121 0.194893 0.424698
-0.017093 0.202919 0.417294
-0.021046 0.188922 0.414731
-0.021020 0.186778 0.411165
-0.015291 0.209319 0.416535
-0.019739 0.236509 0.381185
-0.027128 0.216705 0.378023
-0.025804 0.186063 0.391282
-0.018920 0.172096 0.417707
-0.016531 0.167393 0.425569
-0.013339 0.168085 0.431874
-0.010195 0.158314 0.414647
-0.017673 0.165168 0.404863
-0.021660 0.174004 0.391292
-0.002734 0.158559 0.377406
-0.022059 0.171317 0.385313
-0.022039 0.166012 0.368052
-0.024982 0.172463 0.374715
-0.008435 0.157663 0.371500
-0.013382 0.158779 0.368429
-0.001369 0.155626 0.355984
-0.013798 0.153888 0.342481
-0.003043 0.154600 0.341491
-0.006227 0.148846 0.318828
-0.024210 0.158208 0.321686
-0.026155 0.162367 0.314579
-0.024378 0.166133 0.356487
-0.029476 0.165226 0.332150
-0.030675 0.175633 0.354742
-0.035354 0.175701 0.330731
-0.033463 0.172901 0.309752
-0.035295 0.199691 0.305361
-0.031707 0.214394 0.300788
-0.038685 0.200229 0.320311
-0.038272 0.220339 0.324373
-0.036979 0.201880 0.331349
-0.035412 0.195752 0.342867
-0.033478 0.192745 0.353594
-0.037933 0.207108 0.324329
-0.030814 0.189898 0.373117
-0.030741 0.200265 0.374423
-0.033701 0.202332 0.353335
-0.033987 0.211348 0.351000
-0.038947 0.220959 0.332229
-0.036596 0.218138 0.346877
-0.032810 0.212991 0.359184
-0.036589 0.228372 0.359554
-0.033291 0.233579 0.364220
-0.025403 0.262272 0.353332
0.010993 0.032011 -0.270248
0.013551 0.009286 -0.267527
0.002303 0.017003 -0.265898
0.032521 0.005842 -0.265041
0.035207 0.025257 -0.262852
0.022858 -0.006912 -0.267568
0.040229 0.025195 -0.260927
0.033731 0.006174 -0.264633
0.063894 -0.004006 -0.249273
0.041558 -0.001312 -0.260772
0.008032 -0.017207 -0.262264
0.034169 -0.004342 -0.264886
0.043875 -0.014681 -0.260589
0.018000 -0.017908 -0.266231
0.034697 -0.024674 -0.263473
0.001297 -0.053170 -0.245533
0.000372 -0.055525 -0.245784
0.010541 -0.040322 -0.248063
0.018976 -0.035964 -0.257951
0.003032 -0.056199 -0.245355
0.004999 -0.085961 -0.237446
0.028718 -0.048262 -0.251881
0.030393 -0.042411 -0.256950
0.020629 -0.074172 -0.235511
0.007048 -0.098759 -0.230814
0.025966 -0.078142 -0.229287
0.012018 -0.082146 -0.237595
0.027650 -0.076063 -0.231405
0.046372 -0.040774 -0.256371
0.045027 -0.055916 -0.249503
0.048773 -0.041046 -0.256357
0.067262 -0.018934 -0.244853
0.062850 -0.016412 -0.248699
0.077665 -0.023692 -0.232409
0.084628 -0.009447 -0.222182
0.086450 -0.014072 -0.219620
0.088656 -0.031393 -0.209874
0.090344 -0.013388 -0.212141
0.089153 -0.036300 -0.206916
0.092462 -0.006816 -0.190441
0.093241 -0.016079 -0.200817
0.093558 -0.020272 -0.185400
0.073387 -0.043463 -0.235750
0.082434 -0.042692 -0.221006
0.062949 -0.058951 -0.240219
0.091913 -0.000619 -0.161918
0.092200 -0.004101 -0.167617
0.092041 -0.002181 -0.165359
0.091176 -0.015646 -0.148250
0.091097 -0.006660 -0.154549
0.094331 -0.044921 -0.190162
0.091745 -0.046737 -0.195966
0.094845 -0.038615 -0.179772
0.073124 -0.081409 -0.219791
0.072146 -0.075462 -0.223718
0.085655 -0.067386 -0.199735
0.090976 -0.059929 -0.190978
0.076322 -0.085680 -0.211516
0.045799 -0.074287 -0.238711
0.065951 -0.090103 -0.221444
0.040464 -0.086349 -0.229177
0.024995 -0.106971 -0.209481
0.043049 -0.099066 -0.220227
0.034647 -0.108727 -0.208665
0.048812 -0.117702 -0.210237
0.017549 -0.111297 -0.215077
0.008873 -0.119002 -0.216128
0.000050 -0.129662 -0.207007
0.032439 -0.118901 -0.198306
0.040289 -0.116431 -0.204284
0.025028 -0.121774 -0.195632
0.026855 -0.129649 -0.178180
0.033787 -0.130135 -0.171312
0.037598 -0.136294 -0.179696
0.039995 -0.145866 -0.179637
0.040706 -0.151256 -0.179789
0.050987 -0.141896 -0.203930
0.046939 -0.164990 -0.192625
0.048326 -0.180038 -0.202927
0.055515 -0.161549 -0.210817
0.052921 -0.172058 -0.211940
0.051883 -0.186040 -0.215317
0.054840 -0.171046 -0.215460
0.062636 -0.204110 -0.221119
0.053301 -0.206962 -0.214767
0.055054 -0.263599 -0.209334
0.067178 -0.261171 -0.213548
0.069740 -0.232121 -0.214269
0.054009 -0.282245 -0.212930
0.058253 -0.293092 -0.220463
0.070400 -0.278669 -0.213286
0.050886 -0.316068 -0.197893
0.067119 -0.329300 -0.204890
0.065498 -0.310526 -0.210132
0.074697 -0.313095 -0.202421
0.078665 -0.325145 -0.175780
0.074217 -0.329942 -0.164414
0.064765 -0.327554 -0.163709
0.068543 -0.315595 -0.172676
0.046138 -0.318539 -0.181502
0.048592 -0.301340 -0.191381
0.049106 -0.295225 -0.198238
0.053673 -0.252905 -0.184037
0.047882 -0.246155 -0.199940
0.055898 -0.261187 -0.182510
0.059948 -0.257147 -0.184261
0.046496 -0.229009 -0.197630
0.049209 -0.234427 -0.188996
0.053481 -0.234870 -0.183966
0.051519 -0.202611 -0.181803
0.045311 -0.190831 -0.190478
0.046313 -0.170394 -0.172764
0.060907 -0.199659 -0.185272
0.054371 -0.192509 -0.178545
0.058711 -0.183168 -0.174611
0.054683 -0.149685 -0.149143
0.062755 -0.162677 -0.156221
0.065069 -0.173895 -0.167888
0.062321 -0.143486 -0.141953
0.068128 -0.158590 -0.154789
0.071910 -0.135016 -0.139361
0.064199 -0.122241 -0.130777
0.078453 -0.152156 -0.168643
0.070460 -0.097962 -0.120740
0.074711 -0.143102 -0.148754
0.074410 -0.152978 -0.156597
0.078123 -0.110642 -0.130895
0.082942 -0.096996 -0.131767
0.086009 -0.112916 -0.152469
0.090088 -0.096412 -0.146895
0.073963 -0.082821 -0.118002
0.085077 -0.093882 -0.134561
0.079784 -0.062509 -0.076174
0.072876 -0.054694 -0.097059
0.068689 -0.058910 -0.100321
0.071975 -0.058174 -0.115914
0.073299 -0.050533 -0.117035
0.086498 -0.080523 -0.133675
0.087097 -0.074867 -0.133533
0.089331 -0.055408 -0.135977
0.092932 -0.057107 -0.143622
0.081885 -0.037500 -0.087271
0.078066 -0.050775 -0.091338
0.085717 -0.044778 -0.073216
0.083034 -0.049481 -0.078313
0.088686 -0.051342 -0.060070
0.090602 -0.038782 -0.052305
0.092524 -0.024040 -0.048693
0.088958 -0.050533 -0.057067
0.080882 -0.023803 -0.115794
0.080319 -0.017381 -0.106227
0.084050 -0.012425 -0.098170
0.088639 -0.014259 -0.082358
0.083755 -0.016554 -0.096026
0.091251 -0.013284 -0.046910
0.092255 -0.018664 -0.018667
0.091466 -0.013884 -0.016915
0.085578 0.021334 -0.025051
0.089365 -0.001316 -0.019909
0.082650 0.013049 0.028398
0.086766 0.009158 -0.008446
0.083562 0.021787 0.001884
0.087031 0.007249 -0.007652
0.087804 0.006571 -0.014669
0.089319 -0.011087 0.002784
0.089097 -0.003999 -0.008381
0.079310 0.038701 -0.011086
0.070520 0.061548 -0.008485
0.078811 0.037125 0.000224
0.079547 0.033460 0.006806
0.078998 0.031848 0.018768
0.078524 0.028240 0.037706
0.082992 0.027435 -0.045973
0.091237 -0.014843 -0.068532
0.086273 0.013552 -0.043528
0.081766 0.031223 -0.052317
0.083747 0.018751 -0.066721
0.067601 0.070806 -0.023156
0.076809 0.044599 -0.068391
0.081363 0.034434 -0.034855
0.070911 0.061971 -0.027718
0.076886 0.045023 -0.055884
0.076079 0.046695 -0.064426
0.081882 0.014676 -0.097836
0.083650 0.001758 -0.108948
0.089903 -0.012251 -0.076609
0.078710 0.038566 -0.076275
0.074188 0.049442 -0.069945
0.069351 0.061903 -0.053154
0.065029 0.067445 -0.067654
0.059243 0.080414 -0.057786
0.058282 0.080889 -0.065006
0.059244 0.079690 -0.061596
0.067283 0.059256 -0.093130
0.067181 0.057489 -0.107113
0.065204 0.064026 -0.087751
0.071623 0.050389 -0.096584
0.073570 0.048774 -0.081300
0.074256 0.038995 -0.107069
0.072394 0.043264 -0.112105
0.076144 0.026231 -0.117589
0.075015 0.040299 -0.099372
0.080629 0.013022 -0.129146
0.078541 0.019794 -0.129002
0.083089 -0.009662 -0.129830
0.082989 -0.003573 -0.132166
0.088144 -0.022067 -0.137557
0.086210 -0.023216 -0.133410
0.092825 -0.047080 -0.143388
0.094663 -0.046514 -0.164119
0.094658 -0.056643 -0.151246
0.091110 -0.077789 -0.175954
0.091520 -0.076032 -0.171149
0.090436 -0.090559 -0.159113
0.092306 -0.080547 -0.148265
0.083545 -0.084936 -0.196485
0.092434 -0.067005 -0.184649
0.087910 -0.101639 -0.164874
0.083651 -0.122957 -0.162798
0.073579 -0.094170 -0.213003
0.073189 -0.093253 -0.213686
0.061486 -0.114131 -0.213424
0.062015 -0.132323 -0.208339
0.085136 -0.111076 -0.180588
0.086473 -0.093850 -0.187184
0.082359 -0.118200 -0.187720
0.080890 -0.140655 -0.165704
0.070051 -0.135908 -0.204984
0.081050 -0.134336 -0.183592
0.079196 -0.130455 -0.190493
0.078214 -0.151047 -0.188093
0.069111 -0.175611 -0.175722
0.077099 -0.146168 -0.193795
0.076121 -0.157131 -0.193138
0.056620 -0.155041 -0.210311
0.074545 -0.170848 -0.191645
0.066333 -0.157232 -0.210202
0.068267 -0.168519 -0.209567
0.074582 -0.172026 -0.196497
0.069476 -0.178535 -0.210216
0.073859 -0.198834 -0.197584
0.073549 -0.193992 -0.209333
0.074145 -0.200733 -0.201975
0.068667 -0.204121 -0.193469
0.073158 -0.230488 -0.206980
0.074031 -0.249390 -0.204569
0.074871 -0.231023 -0.200972
0.073516 -0.241455 -0.197834
0.074377 -0.246250 -0.199211
0.071383 -0.266262 -0.192047
0.069430 -0.284255 -0.187310
0.076185 -0.301200 -0.199604
0.073298 -0.299835 -0.211503
0.073614 -0.290900 -0.216463
0.039381 0.232721 0.298818
0.052298 0.227086 0.297878
0.053366 0.232274 0.292472
0.046531 0.242470 0.299647
0.058140 0.241061 0.305189
0.046549 0.248360 0.316179
0.052725 0.243459 0.322736
0.056300 0.242048 0.325547
0.061955 0.240750 0.310546
0.074770 0.225172 0.330386
0.070429 0.231966 0.334321
0.070093 0.234211 0.294630
0.086525 0.226757 0.318034
0.094527 0.219265 0.311606
0.081833 0.229279 0.308099
0.091998 0.216589 0.293584
0.085592 0.218660 0.290150
0.080889 0.228560 0.304000
0.077041 0.226222 0.290236
0.044420 0.233371 0.313871
0.048062 0.232908 0.312033
0.070090 0.227207 0.314549
0.071453 0.226112 0.313135
0.077379 0.222464 0.316003
0.093614 0.207306 0.306553
0.004708 0.169821 0.430138
-0.045050 0.248904 0.311729
-0.042340 0.243761 0.326573
-0.050872 0.242472 0.327521
-0.052286 0.236467 0.328553
-0.066587 0.237202 0.327317
-0.079446 0.231096 0.309871
-0.078864 0.232376 0.319583
-0.082880 0.213749 0.289983
-0.094300 0.216334 0.299772
-0.084325 0.222513 0.293930
-0.072483 0.223466 0.288860
-0.077860 0.228573 0.297724
-0.040047 0.231629 0.320943
-0.050317 0.233020 0.315119
-0.071691 0.226336 0.316314
-0.080169 0.217833 0.307160
-0.083925 0.217384 0.315791
-0.092376 0.209103 0.309129
0.001990 0.022038 -0.279670
-0.005087 0.026149 -0.280613
-0.004409 0.004024 -0.286196
-0.010310 0.020499 -0.288810
-0.017489 0.008915 -0.300508
-0.001443 -0.025024 -0.292582
-0.011520 -0.022757 -0.295385
0.005225 -0.043459 -0.290581
-0.002645 -0.046408 -0.290717
-0.009469 -0.029658 -0.294223
-0.018864 -0.006433 -0.300917
-0.020305 0.003129 -0.312227
-0.020686 -0.028197 -0.308290
-0.014418 -0.049708 -0.297479
-0.007799 -0.054340 -0.293553
0.004648 -0.061570 -0.294769
-0.001582 -0.069878 -0.300118
-0.010229 -0.063595 -0.306237
-0.011122 -0.041508 -0.312974
-0.002522 -0.038364 -0.315133
-0.017005 -0.047437 -0.309466
-0.020058 -0.025692 -0.316378
-0.006620 -0.001487 -0.318144
0.017918 -0.045514 -0.301120
0.012716 -0.033819 -0.296366
0.005891 -0.046263 -0.311724
0.019941 -0.036299 -0.307038
0.014726 -0.038022 -0.313723
0.012642 -0.014373 -0.295751
0.021335 -0.024886 -0.316098
0.006480 -0.008478 -0.291430
0.020979 -0.010535 -0.309350
0.005339 -0.006337 -0.290293
0.000828 -0.014460 -0.319117
0.020123 0.002643 -0.310827
0.015987 -0.006225 -0.316290
0.010603 0.012123 -0.290435
0.015935 0.011378 -0.296616
0.006384 0.025548 -0.282654
0.009272 0.028064 -0.286049
0.013338 0.036111 -0.299207
0.013391 0.029265 -0.304620
0.011444 0.061574 -0.279531
0.003774 0.008313 -0.315281
-0.001920 0.003855 -0.316680
-0.014277 0.016618 -0.310515
-0.002172 0.038178 -0.303413
-0.008518 0.042721 -0.297964
-0.007629 0.049743 -0.293673
-0.003746 0.194181 0.408678
-0.015607 0.181973 0.408502
-0.012076 0.189864 0.414707
-0.015812 0.187202 0.418430
-0.060419 -0.206615 0.152760
-0.067889 -0.194244 0.137522
-0.067237 -0.204388 0.141980
-0.060268 -0.214616 0.150149
-0.068089 -0.210860 0.135173
-0.062136 -0.241327 0.145552
-0.063828 -0.220980 0.129784
-0.061225 -0.220307 0.126146
-0.064669 -0.234597 0.138229
-0.063781 -0.250621 0.133688
-0.064209 -0.264939 0.137706
-0.064764 -0.270025 0.138673
-0.064701 -0.290524 0.146733
-0.067655 -0.287431 0.134012
-0.048971 -0.298535 0.124303
0.073149 -0.332516 -0.198158
0.077099 -0.332555 -0.186008
0.054634 -0.332378 -0.186374
0.049992 -0.331623 -0.182004
0.072183 -0.330978 -0.164010
0.060047 -0.332219 0.168887
0.071266 -0.331823 0.167948
0.063653 -0.333039 0.157845
0.056524 -0.333589 0.152775
